ply
format ascii 1.0
comment VCGLIB generated
element vertex 1316
property double x
property double y
property double z
property double nx
property double ny
property double nz
element face 0
property list uchar int vertex_indices
end_header
0.321503 0.952039 0.023492 0 0 0 
0.413808 0.878374 0.059635 0 0 0 
0.418468 0.873476 0.056105 0 0 0 
0.421952 0.879049 0.052433 0 0 0 
0.41706 0.883988 0.054842 0 0 0 
0.408316 0.885817 0.06313199999999999 0 0 0 
0.411386 0.8923179999999999 0.055839 0 0 0 
0.326015 0.960628 0.01641 0 0 0 
0.329395 0.958162 0.016433 0 0 0 
0.327195 0.955219 0.015139 0 0 0 
0.324004 0.957267 0.015302 0 0 0 
0.35637 0.909838 0.028487 0 0 0 
0.351595 0.911754 0.019911 0 0 0 
0.342159 0.9245910000000001 0.024984 0 0 0 
0.343135 0.923447 0.018282 0 0 0 
0.34681 0.917556 0.019421 0 0 0 
0.348377 0.918044 0.027999 0 0 0 
0.359778 0.911886 0.046043 0 0 0 
0.355072 0.915387 0.040399 0 0 0 
0.362288 0.907534 0.04028 0 0 0 
0.365852 0.904243 0.045269 0 0 0 
0.369677 0.899952 0.054391 0 0 0 
0.369792 0.899589 0.059806 0 0 0 
0.36596 0.905519 0.061432 0 0 0 
0.363639 0.908381 0.05526 0 0 0 
0.352262 0.92415 0.053836 0 0 0 
0.35368 0.923577 0.057136 0 0 0 
0.350579 0.931751 0.057752 0 0 0 
0.348743 0.931961 0.054133 0 0 0 
0.42308 0.868825 0.052868 0 0 0 
0.427453 0.874914 0.04904 0 0 0 
0.386211 0.913998 0.068663 0 0 0 
0.381117 0.918578 0.071781 0 0 0 
0.379821 0.911887 0.079262 0 0 0 
0.387133 0.905763 0.074806 0 0 0 
0.417767 0.889909 0.046518 0 0 0 
0.422834 0.884539 0.045429 0 0 0 
0.327444 0.963175 0.020174 0 0 0 
0.330845 0.9610030000000001 0.019876 0 0 0 
0.374037 0.888383 -0.011614 0 0 0 
0.386058 0.881599 -0.003493 0 0 0 
0.393474 0.876898 0.001638 0 0 0 
0.397262 0.873522 0.004931 0 0 0 
0.399396 0.870344 0.006067 0 0 0 
0.347929 0.920299 0.033819 0 0 0 
0.361725 0.906712 0.034845 0 0 0 
0.371877 0.895919 0.045615 0 0 0 
0.378301 0.890531 0.06977999999999999 0 0 0 
0.375077 0.892304 0.063265 0 0 0 
0.378282 0.886541 0.060211 0 0 0 
0.384109 0.883648 0.067875 0 0 0 
0.381834 0.89956 0.07767300000000001 0 0 0 
0.375364 0.906137 0.080786 0 0 0 
0.370635 0.904287 0.078179 0 0 0 
0.376205 0.897237 0.075673 0 0 0 
0.359999 0.90386 -0.011885 0 0 0 
0.369386 0.903517 -0.00626 0 0 0 
0.408741 0.872379 0.060783 0 0 0 
0.413072 0.867553 0.056685 0 0 0 
0.418066 0.863629 0.053089 0 0 0 
0.382961 0.878588 0.0447 0 0 0 
0.380703 0.880429 0.042257 0 0 0 
0.387232 0.867649 0.038679 0 0 0 
0.390522 0.867101 0.041966 0 0 0 
0.367969 0.883099 0.026404 0 0 0 
0.361066 0.886195 0.015813 0 0 0 
0.374472 0.870511 0.024463 0 0 0 
0.39564 0.8605429999999999 0.03507 0 0 0 
0.399966 0.857198 0.032115 0 0 0 
0.404699 0.8570990000000001 0.040383 0 0 0 
0.410325 0.857912 0.047737 0 0 0 
0.414764 0.8605390000000001 0.05117 0 0 0 
0.40261 0.852453 0.030961 0 0 0 
0.40666 0.852947 0.038519 0 0 0 
0.412973 0.854112 0.045685 0 0 0 
0.41816 0.8564079999999999 0.049124 0 0 0 
0.435254 0.873014 0.037949 0 0 0 
0.429705 0.879495 0.041523 0 0 0 
0.432627 0.868564 0.045434 0 0 0 
0.398216 0.858689 0.012938 0 0 0 
0.4 0.853819 0.022392 0 0 0 
0.39667 0.85842 0.023392 0 0 0 
0.400936 0.865433 0.006324 0 0 0 
0.355484 0.885308 -0.005108 0 0 0 
0.353754 0.891517 -0.000183 0 0 0 
0.350048 0.893316 -0.005526 0 0 0 
0.351027 0.888609 -0.01072 0 0 0 
0.348573 0.9199310000000001 0.012108 0 0 0 
0.344642 0.926728 0.013264 0 0 0 
0.348702 0.931436 0.011266 0 0 0 
0.39454 0.874217 0.062643 0 0 0 
0.387513 0.875413 0.054254 0 0 0 
0.342118 0.92682 0.029772 0 0 0 
0.332639 0.95561 0.016296 0 0 0 
0.342899 0.945706 0.015141 0 0 0 
0.340561 0.940914 0.013575 0 0 0 
0.329929 0.9524319999999999 0.014816 0 0 0 
0.340533 0.935663 0.031835 0 0 0 
0.338203 0.939484 0.031081 0 0 0 
0.337598 0.93437 0.027588 0 0 0 
0.339689 0.931311 0.027893 0 0 0 
0.356101 0.921366 0.063594 0 0 0 
0.353501 0.927766 0.06389400000000001 0 0 0 
0.358484 0.938346 0.030257 0 0 0 
0.36627 0.930543 0.016513 0 0 0 
0.358834 0.936875 0.019375 0 0 0 
0.362354 0.909174 0.050784 0 0 0 
0.358245 0.915905 0.056212 0 0 0 
0.357253 0.916094 0.052481 0 0 0 
0.347382 0.922243 0.036478 0 0 0 
0.350147 0.920737 0.040774 0 0 0 
0.34633 0.925722 0.039466 0 0 0 
0.343327 0.9283940000000001 0.034091 0 0 0 
0.389223 0.892104 0.074643 0 0 0 
0.395414 0.8999470000000001 0.07007099999999999 0 0 0 
0.325176 0.951588 0.015774 0 0 0 
0.322614 0.954045 0.016189 0 0 0 
0.427734 0.864067 0.049177 0 0 0 
0.422814 0.8598749999999999 0.050119 0 0 0 
0.368429 0.9013679999999999 0.04935 0 0 0 
0.376045 0.922496 0.01569 0 0 0 
0.373473 0.893956 0.048603 0 0 0 
0.36887 0.930209 0.066053 0 0 0 
0.364452 0.935096 0.067596 0 0 0 
0.361963 0.931732 0.07023 0 0 0 
0.366181 0.926887 0.070785 0 0 0 
0.330057 0.950962 0.030242 0 0 0 
0.32749 0.954355 0.029897 0 0 0 
0.325417 0.95097 0.027241 0 0 0 
0.327629 0.947997 0.027182 0 0 0 
0.339561 0.929268 0.023427 0 0 0 
0.336324 0.933124 0.022869 0 0 0 
0.336934 0.933536 0.017823 0 0 0 
0.340199 0.928714 0.018157 0 0 0 
0.342093 0.932356 0.013781 0 0 0 
0.338953 0.936929 0.014286 0 0 0 
0.33285 0.955129 0.029891 0 0 0 
0.34025 0.946167 0.030645 0 0 0 
0.343966 0.948582 0.026383 0 0 0 
0.334766 0.958206 0.025169 0 0 0 
0.40168 0.90761 0.044552 0 0 0 
0.393285 0.911666 0.058072 0 0 0 
0.403271 0.903885 0.053 0 0 0 
0.374062 0.930034 0.056309 0 0 0 
0.37513 0.924455 0.065458 0 0 0 
0.384199 0.918671 0.062556 0 0 0 
0.394866 0.907491 0.063593 0 0 0 
0.347957 0.939176 0.03439 0 0 0 
0.352338 0.940638 0.033745 0 0 0 
0.350348 0.941448 0.027952 0 0 0 
0.374912 0.891846 0.053991 0 0 0 
0.328113 0.948994 0.015235 0 0 0 
0.40743 0.887772 0.009490999999999999 0 0 0 
0.403414 0.892611 0.009959000000000001 0 0 0 
0.410039 0.896011 0.019545 0 0 0 
0.413391 0.890911 0.017397 0 0 0 
0.32694 0.945998 0.023353 0 0 0 
0.326543 0.946123 0.018471 0 0 0 
0.358418 0.921833 0.069465 0 0 0 
0.36026 0.923593 0.072811 0 0 0 
0.357319 0.929017 0.07144300000000001 0 0 0 
0.355717 0.927267 0.068561 0 0 0 
0.404371 0.900798 0.057971 0 0 0 
0.377496 0.92205 0.07517699999999999 0 0 0 
0.375149 0.916042 0.082288 0 0 0 
0.411734 0.896431 0.048543 0 0 0 
0.416447 0.893635 0.037024 0 0 0 
0.41029 0.89993 0.040483 0 0 0 
0.365666 0.936955 0.04766 0 0 0 
0.398414 0.910913 0.038568 0 0 0 
0.407776 0.902562 0.035466 0 0 0 
0.414443 0.895448 0.030516 0 0 0 
0.418828 0.890251 0.027292 0 0 0 
0.421067 0.8890980000000001 0.034377 0 0 0 
0.334518 0.958291 0.020058 0 0 0 
0.331003 0.961326 0.02545 0 0 0 
0.433669 0.875965 0.0279 0 0 0 
0.427201 0.883362 0.03163 0 0 0 
0.428812 0.877385 0.020376 0 0 0 
0.423336 0.884823 0.024069 0 0 0 
0.399957 0.90501 0.020526 0 0 0 
0.404624 0.904004 0.02852 0 0 0 
0.390808 0.914578 0.024257 0 0 0 
0.395777 0.912611 0.031544 0 0 0 
0.366757 0.937412 0.037329 0 0 0 
0.319272 0.968744 0.028647 0 0 0 
0.318047 0.966379 0.030108 0 0 0 
0.324419 0.958278 0.030094 0 0 0 
0.326093 0.962444 0.028953 0 0 0 
0.329734 0.958517 0.029334 0 0 0 
0.327611 0.964079 0.025478 0 0 0 
0.385649 0.913378 0.014174 0 0 0 
0.343808 0.932204 0.038254 0 0 0 
0.39403 0.900757 0.009237 0 0 0 
0.381859 0.9035069999999999 0.000809 0 0 0 
0.375508 0.912895 0.004933 0 0 0 
0.390121 0.89069 -0.000293 0 0 0 
0.398363 0.885314 0.003754 0 0 0 
0.404935 0.877951 0.004724 0 0 0 
0.401784 0.882065 0.004791 0 0 0 
0.40541 0.87229 0.004406 0 0 0 
0.379693 0.8942059999999999 -0.006857 0 0 0 
0.315768 0.95824 0.025369 0 0 0 
0.315229 0.957901 0.020709 0 0 0 
0.409691 0.882969 0.008218 0 0 0 
0.413295 0.876479 0.006443 0 0 0 
0.356481 0.88986 0.007489 0 0 0 
0.378246 0.886395 0.047308 0 0 0 
0.379579 0.884725 0.051081 0 0 0 
0.381903 0.881673 0.057122 0 0 0 
0.388528 0.87999 0.066095 0 0 0 
0.421483 0.878109 0.012156 0 0 0 
0.407985 0.843005 0.036449 0 0 0 
0.4138 0.844087 0.043505 0 0 0 
0.434763 0.86638 0.016002 0 0 0 
0.316151 0.959797 0.017132 0 0 0 
0.351527 0.937014 0.05678 0 0 0 
0.35004 0.9377180000000001 0.054632 0 0 0 
0.359277 0.8830519999999999 -0.01171 0 0 0 
0.354727 0.887003 -0.015468 0 0 0 
0.35937 0.895707 -0.019462 0 0 0 
0.36691 0.891978 -0.016177 0 0 0 
0.363999 0.885982 -0.015833 0 0 0 
0.357225 0.890275 -0.018859 0 0 0 
0.384017 0.877705 0.045995 0 0 0 
0.38475 0.87749 0.049128 0 0 0 
0.402244 0.893065 0.066284 0 0 0 
0.395823 0.885853 0.070468 0 0 0 
0.345266 0.936624 0.012747 0 0 0 
0.348149 0.940619 0.015191 0 0 0 
0.35291 0.935591 0.01376 0 0 0 
0.345326 0.947679 0.019739 0 0 0 
0.343949 0.940708 0.031704 0 0 0 
0.344647 0.937425 0.035526 0 0 0 
0.3755 0.882441 0.036025 0 0 0 
0.380556 0.869422 0.032166 0 0 0 
0.350984 0.899162 -0.002931 0 0 0 
0.353538 0.8983989999999999 0.002792 0 0 0 
0.354774 0.917289 0.046031 0 0 0 
0.358075 0.9429650000000001 0.047903 0 0 0 
0.358681 0.943468 0.039074 0 0 0 
0.349629 0.924441 0.046623 0 0 0 
0.31702 0.962348 0.015829 0 0 0 
0.318501 0.966207 0.016923 0 0 0 
0.351136 0.942529 0.020057 0 0 0 
0.360705 0.913752 0.06278 0 0 0 
0.353912 0.9415 0.052984 0 0 0 
0.360888 0.938402 0.054249 0 0 0 
0.372004 0.910676 0.08251500000000001 0 0 0 
0.416858 0.885549 0.014925 0 0 0 
0.322326 0.954419 0.028088 0 0 0 
0.316664 0.960309 0.028911 0 0 0 
0.320536 0.9693580000000001 0.025481 0 0 0 
0.320666 0.968175 0.020752 0 0 0 
0.402125 0.8791060000000001 0.06626 0 0 0 
0.376807 0.888682 0.046112 0 0 0 
0.419735 0.845706 0.04761 0 0 0 
0.370123 0.897547 -0.011831 0 0 0 
0.361162 0.900848 -0.016782 0 0 0 
0.346412 0.929986 0.046659 0 0 0 
0.372097 0.925566 0.07165000000000001 0 0 0 
0.35932 0.941555 0.05743 0 0 0 
0.363926 0.939912 0.061553 0 0 0 
0.368078 0.935653 0.059376 0 0 0 
0.354391 0.940876 0.057177 0 0 0 
0.317061 0.971257 0.020744 0 0 0 
0.316923 0.972363 0.025939 0 0 0 
0.314895 0.9693929999999999 0.016779 0 0 0 
0.313221 0.965395 0.015876 0 0 0 
0.313046 0.962262 0.017685 0 0 0 
0.315593 0.9717519999999999 0.028986 0 0 0 
0.314399 0.9699 0.030145 0 0 0 
0.313773 0.9633659999999999 0.028935 0 0 0 
0.312272 0.974228 0.02939 0 0 0 
0.311461 0.976576 0.025923 0 0 0 
0.304954 0.975939 0.018407 0 0 0 
0.304874 0.9784119999999999 0.02001 0 0 0 
0.308257 0.9763849999999999 0.019866 0 0 0 
0.309189 0.974679 0.018185 0 0 0 
0.301164 0.978326 0.019697 0 0 0 
0.301592 0.98137 0.020853 0 0 0 
0.306568 0.980092 0.022704 0 0 0 
0.310424 0.976647 0.021757 0 0 0 
0.302866 0.983497 0.023537 0 0 0 
0.303324 0.983227 0.026836 0 0 0 
0.306839 0.979951 0.026173 0 0 0 
0.309586 0.977739 0.025067 0 0 0 
0.311993 0.975716 0.02159 0 0 0 
0.298712 0.9812149999999999 0.021527 0 0 0 
0.298085 0.983946 0.024978 0 0 0 
0.300099 0.985254 0.024055 0 0 0 
0.299719 0.983161 0.021678 0 0 0 
0.309659 0.9685240000000001 0.016815 0 0 0 
0.304158 0.973309 0.018378 0 0 0 
0.300396 0.97603 0.020432 0 0 0 
0.298167 0.978797 0.022448 0 0 0 
0.303152 0.971252 0.020207 0 0 0 
0.3003 0.974485 0.022078 0 0 0 
0.298541 0.976865 0.024242 0 0 0 
0.302757 0.970696 0.023159 0 0 0 
0.300305 0.973971 0.024411 0 0 0 
0.310489 0.964433 0.01804 0 0 0 
0.310328 0.962775 0.021049 0 0 0 
0.299171 0.976033 0.025332 0 0 0 
0.297636 0.981811 0.025973 0 0 0 
0.307759 0.978688 0.028614 0 0 0 
0.303139 0.981866 0.0292 0 0 0 
0.307626 0.977546 0.030081 0 0 0 
0.302783 0.9803460000000001 0.030432 0 0 0 
0.301235 0.984894 0.026957 0 0 0 
0.300145 0.984074 0.028465 0 0 0 
0.313319 0.959903 0.021085 0 0 0 
0.313719 0.960739 0.025974 0 0 0 
0.311013 0.963381 0.026165 0 0 0 
0.303409 0.970932 0.027088 0 0 0 
0.311282 0.96623 0.029226 0 0 0 
0.311139 0.972368 0.030534 0 0 0 
0.306193 0.976012 0.030857 0 0 0 
0.304891 0.973263 0.030435 0 0 0 
0.302279 0.978307 0.030657 0 0 0 
0.301714 0.976194 0.029953 0 0 0 
0.300788 0.974495 0.027407 0 0 0 
0.299807 0.979396 0.029549 0 0 0 
0.299813 0.982058 0.029377 0 0 0 
0.298275 0.979064 0.026863 0 0 0 
0.299214 0.977005 0.027135 0 0 0 
0.300092 0.977739 0.029233 0 0 0 
0.325543 0.95929 0.046723 0 0 0 
0.328669 0.9561190000000001 0.045836 0 0 0 
0.329766 0.955955 0.05068 0 0 0 
0.326449 0.959432 0.052559 0 0 0 
0.330057 0.966521 0.042858 0 0 0 
0.33391 0.9637559999999999 0.042175 0 0 0 
0.330376 0.96035 0.04086 0 0 0 
0.326999 0.962781 0.041736 0 0 0 
0.333235 0.967795 0.047697 0 0 0 
0.337227 0.96504 0.046712 0 0 0 
0.337374 0.960714 0.040826 0 0 0 
0.348588 0.948092 0.036631 0 0 0 
0.345 0.944197 0.036091 0 0 0 
0.333802 0.957172 0.039408 0 0 0 
0.346809 0.9414439999999999 0.054592 0 0 0 
0.345294 0.938015 0.052372 0 0 0 
0.3289 0.957548 0.042437 0 0 0 
0.325603 0.9601189999999999 0.043767 0 0 0 
0.336331 0.9556 0.056884 0 0 0 
0.333322 0.959512 0.057952 0 0 0 
0.331018 0.957048 0.055046 0 0 0 
0.334047 0.953422 0.053984 0 0 0 
0.343088 0.936352 0.046444 0 0 0 
0.34197 0.937761 0.040038 0 0 0 
0.343203 0.941419 0.036719 0 0 0 
0.339057 0.959084 0.056639 0 0 0 
0.349782 0.947506 0.053596 0 0 0 
0.352073 0.950377 0.049342 0 0 0 
0.340656 0.962026 0.052867 0 0 0 
0.332178 0.9544589999999999 0.040911 0 0 0 
0.332715 0.952489 0.049471 0 0 0 
0.331755 0.952664 0.04467 0 0 0 
0.340678 0.962045 0.046017 0 0 0 
0.336981 0.9650030000000001 0.054207 0 0 0 
0.324371 0.973906 0.060677 0 0 0 
0.321894 0.971704 0.061801 0 0 0 
0.330085 0.963357 0.059699 0 0 0 
0.331927 0.96627 0.05901 0 0 0 
0.335365 0.962768 0.057645 0 0 0 
0.333522 0.968027 0.055093 0 0 0 
0.317279 0.968659 0.056738 0 0 0 
0.315921 0.968172 0.051338 0 0 0 
0.315887 0.969033 0.047661 0 0 0 
0.352028 0.950673 0.041872 0 0 0 
0.317656 0.9701959999999999 0.045541 0 0 0 
0.321304 0.973086 0.045806 0 0 0 
0.32766 0.9606479999999999 0.056761 0 0 0 
0.319015 0.969743 0.060443 0 0 0 
0.325329 0.974855 0.057227 0 0 0 
0.325179 0.974074 0.050192 0 0 0 
0.320335 0.977743 0.052268 0 0 0 
0.320994 0.9782149999999999 0.05844 0 0 0 
0.316659 0.976714 0.047697 0 0 0 
0.314006 0.9735819999999999 0.047373 0 0 0 
0.313199 0.971731 0.049198 0 0 0 
0.320134 0.977966 0.061348 0 0 0 
0.318365 0.975838 0.062464 0 0 0 
0.316589 0.972279 0.060731 0 0 0 
0.315317 0.982228 0.062921 0 0 0 
0.314863 0.983897 0.060246 0 0 0 
0.302829 0.988329 0.053438 0 0 0 
0.303878 0.990197 0.054521 0 0 0 
0.307254 0.986659 0.053676 0 0 0 
0.306503 0.9852340000000001 0.051775 0 0 0 
0.310377 0.984538 0.053086 0 0 0 
0.311036 0.983025 0.051168 0 0 0 
0.308972 0.98829 0.056781 0 0 0 
0.312343 0.984727 0.055793 0 0 0 
0.305519 0.992377 0.058038 0 0 0 
0.306918 0.9916199999999999 0.061876 0 0 0 
0.310219 0.987587 0.060763 0 0 0 
0.312504 0.985277 0.059072 0 0 0 
0.300363 0.991621 0.056301 0 0 0 
0.30176 0.9926160000000001 0.055755 0 0 0 
0.31424 0.9831490000000001 0.054663 0 0 0 
0.311182 0.977256 0.048758 0 0 0 
0.305527 0.982538 0.051268 0 0 0 
0.301833 0.986187 0.054108 0 0 0 
0.299804 0.989832 0.057625 0 0 0 
0.304717 0.9806009999999999 0.053304 0 0 0 
0.30152 0.984859 0.055886 0 0 0 
0.300279 0.987927 0.05887 0 0 0 
0.304991 0.979342 0.056734 0 0 0 
0.302041 0.984002 0.058684 0 0 0 
0.310969 0.973974 0.050259 0 0 0 
0.311754 0.972392 0.053563 0 0 0 
0.30111 0.986494 0.059636 0 0 0 
0.300371 0.992231 0.060855 0 0 0 
0.300946 0.994649 0.059628 0 0 0 
0.302246 0.995356 0.058865 0 0 0 
0.310607 0.986993 0.062302 0 0 0 
0.306748 0.990922 0.06346599999999999 0 0 0 
0.310811 0.986486 0.064274 0 0 0 
0.306259 0.99038 0.064842 0 0 0 
0.304003 0.994485 0.062006 0 0 0 
0.303584 0.993847 0.063124 0 0 0 
0.313769 0.9704930000000001 0.052437 0 0 0 
0.315365 0.970729 0.05746 0 0 0 
0.313341 0.972522 0.058106 0 0 0 
0.30669 0.979582 0.060933 0 0 0 
0.314715 0.974533 0.061575 0 0 0 
0.315 0.979857 0.06350600000000001 0 0 0 
0.310319 0.984369 0.06490600000000001 0 0 0 
0.308529 0.981743 0.06395199999999999 0 0 0 
0.305816 0.988555 0.065217 0 0 0 
0.305503 0.985811 0.064568 0 0 0 
0.303601 0.984131 0.061909 0 0 0 
0.30306 0.990501 0.064149 0 0 0 
0.303153 0.992649 0.06388099999999999 0 0 0 
0.300663 0.990013 0.061411 0 0 0 
0.301747 0.987422 0.061849 0 0 0 
0.303357 0.988124 0.064054 0 0 0 
0.33738 0.9525749999999999 0.067885 0 0 0 
0.339874 0.950065 0.067028 0 0 0 
0.340839 0.94804 0.07116500000000001 0 0 0 
0.338188 0.950391 0.072419 0 0 0 
0.342733 0.959306 0.06721199999999999 0 0 0 
0.346011 0.956562 0.065193 0 0 0 
0.342543 0.955354 0.064392 0 0 0 
0.340005 0.957942 0.065979 0 0 0 
0.344434 0.9597830000000001 0.07138899999999999 0 0 0 
0.348908 0.956351 0.06916799999999999 0 0 0 
0.349157 0.95359 0.063511 0 0 0 
0.356048 0.945241 0.059456 0 0 0 
0.35208 0.942979 0.058885 0 0 0 
0.344886 0.952634 0.06281200000000001 0 0 0 
0.340378 0.952739 0.065053 0 0 0 
0.338109 0.955356 0.06621 0 0 0 
0.34643 0.945206 0.075928 0 0 0 
0.34404 0.948642 0.077086 0 0 0 
0.342451 0.947724 0.074922 0 0 0 
0.344725 0.944426 0.073509 0 0 0 
0.351218 0.932955 0.064648 0 0 0 
0.349823 0.935522 0.060617 0 0 0 
0.350012 0.939819 0.059419 0 0 0 
0.349715 0.9479 0.07674300000000001 0 0 0 
0.358044 0.937685 0.07208299999999999 0 0 0 
0.360123 0.941507 0.06984600000000001 0 0 0 
0.352637 0.950994 0.073063 0 0 0 
0.342433 0.950105 0.06374199999999999 0 0 0 
0.342972 0.944978 0.070183 0 0 0 
0.34167 0.947477 0.065937 0 0 0 
0.352182 0.952958 0.067441 0 0 0 
0.348964 0.954684 0.074825 0 0 0 
0.335354 0.964284 0.082676 0 0 0 
0.333481 0.961642 0.083088 0 0 0 
0.341515 0.951364 0.07867399999999999 0 0 0 
0.344255 0.954296 0.078692 0 0 0 
0.346609 0.951448 0.07777000000000001 0 0 0 
0.345708 0.95756 0.07614899999999999 0 0 0 
0.329943 0.959295 0.077205 0 0 0 
0.32886 0.96087 0.073431 0 0 0 
0.330036 0.96267 0.07110900000000001 0 0 0 
0.359416 0.944754 0.06375500000000001 0 0 0 
0.354871 0.932503 0.071851 0 0 0 
0.331244 0.964567 0.070615 0 0 0 
0.33314 0.966605 0.07163600000000001 0 0 0 
0.339836 0.950112 0.076222 0 0 0 
0.331693 0.959541 0.081279 0 0 0 
0.33672 0.966155 0.080167 0 0 0 
0.336173 0.966861 0.07531400000000001 0 0 0 
0.332982 0.969769 0.077005 0 0 0 
0.333605 0.968796 0.081584 0 0 0 
0.329911 0.969561 0.073254 0 0 0 
0.328167 0.9673119999999999 0.07255399999999999 0 0 0 
0.327197 0.965209 0.073111 0 0 0 
0.332159 0.967139 0.083956 0 0 0 
0.330583 0.965059 0.08414099999999999 0 0 0 
0.3299 0.961504 0.081692 0 0 0 
0.329396 0.969516 0.085309 0 0 0 
0.329182 0.972726 0.082967 0 0 0 
0.317769 0.979213 0.07883900000000001 0 0 0 
0.318751 0.9798480000000001 0.079816 0 0 0 
0.321572 0.976307 0.077777 0 0 0 
0.321184 0.976187 0.076848 0 0 0 
0.324947 0.974356 0.076825 0 0 0 
0.325808 0.973653 0.075646 0 0 0 
0.323721 0.977716 0.081218 0 0 0 
0.326971 0.974534 0.0793 0 0 0 
0.320605 0.980795 0.08271199999999999 0 0 0 
0.322121 0.978523 0.08623 0 0 0 
0.324939 0.975565 0.084896 0 0 0 
0.327651 0.973907 0.08253199999999999 0 0 0 
0.31654 0.98136 0.08107300000000001 0 0 0 
0.31714 0.981868 0.08122699999999999 0 0 0 
0.328636 0.973235 0.07875600000000001 0 0 0 
0.32498 0.970435 0.074242 0 0 0 
0.320312 0.974226 0.076319 0 0 0 
0.317013 0.976953 0.07865800000000001 0 0 0 
0.315552 0.978827 0.08112 0 0 0 
0.319656 0.971567 0.07724 0 0 0 
0.316833 0.974726 0.07954 0 0 0 
0.31567 0.97655 0.081765 0 0 0 
0.319771 0.969776 0.07882699999999999 0 0 0 
0.317291 0.9731070000000001 0.080763 0 0 0 
0.324904 0.967349 0.074362 0 0 0 
0.325555 0.9645550000000001 0.075845 0 0 0 
0.316389 0.9749910000000001 0.08239299999999999 0 0 0 
0.316214 0.979651 0.085396 0 0 0 
0.317136 0.982445 0.084631 0 0 0 
0.318094 0.98297 0.08404200000000001 0 0 0 
0.325615 0.9746590000000001 0.08608200000000001 0 0 0 
0.321833 0.977758 0.08747000000000001 0 0 0 
0.325342 0.972782 0.08688 0 0 0 
0.32135 0.976002 0.088085 0 0 0 
0.319771 0.9809290000000001 0.08677799999999999 0 0 0 
0.319483 0.980314 0.08733299999999999 0 0 0 
0.327478 0.962639 0.074783 0 0 0 
0.328507 0.9611690000000001 0.078155 0 0 0 
0.326522 0.9630030000000001 0.07918500000000001 0 0 0 
0.320587 0.968855 0.082168 0 0 0 
0.327949 0.963523 0.082353 0 0 0 
0.327978 0.967652 0.085096 0 0 0 
0.324257 0.970837 0.08661099999999999 0 0 0 
0.322441 0.969428 0.085206 0 0 0 
0.320642 0.974286 0.08762200000000001 0 0 0 
0.320113 0.972539 0.086466 0 0 0 
0.318171 0.972294 0.083535 0 0 0 
0.318509 0.976237 0.087357 0 0 0 
0.318972 0.978447 0.087793 0 0 0 
0.316292 0.97703 0.085026 0 0 0 
0.316926 0.975048 0.084523 0 0 0 
0.318286 0.974617 0.086461 0 0 0 
0.353293 0.931522 0.068789 0 0 0 
0.353438 0.93629 0.088472 0 0 0 
0.355441 0.93399 0.086592 0 0 0 
0.356014 0.9320850000000001 0.089118 0 0 0 
0.354188 0.934024 0.090784 0 0 0 
0.35854 0.942504 0.088912 0 0 0 
0.360983 0.9401969999999999 0.086406 0 0 0 
0.358146 0.9394400000000001 0.084911 0 0 0 
0.355654 0.941773 0.08726200000000001 0 0 0 
0.360912 0.940865 0.09238300000000001 0 0 0 
0.363388 0.938768 0.09002300000000001 0 0 0 
0.362712 0.937806 0.08386399999999999 0 0 0 
0.368993 0.929146 0.07562099999999999 0 0 0 
0.36543 0.92861 0.075129 0 0 0 
0.359811 0.937018 0.08250200000000001 0 0 0 
0.369746 0.914281 0.08414000000000001 0 0 0 
0.366626 0.918206 0.08665200000000001 0 0 0 
0.363829 0.918994 0.083994 0 0 0 
0.366403 0.913676 0.08150399999999999 0 0 0 
0.356029 0.936815 0.08504100000000001 0 0 0 
0.354005 0.939306 0.08734 0 0 0 
0.361057 0.927783 0.092432 0 0 0 
0.359662 0.9304750000000001 0.094096 0 0 0 
0.357607 0.930827 0.091558 0 0 0 
0.358774 0.928598 0.09009200000000001 0 0 0 
0.363485 0.916386 0.07867 0 0 0 
0.36198 0.920829 0.081222 0 0 0 
0.361367 0.922857 0.077676 0 0 0 
0.361566 0.9189580000000001 0.07547 0 0 0 
0.362277 0.925716 0.076155 0 0 0 
0.363303 0.928974 0.093297 0 0 0 
0.370209 0.9188269999999999 0.086364 0 0 0 
0.372611 0.921311 0.08497499999999999 0 0 0 
0.365433 0.932383 0.0914 0 0 0 
0.357466 0.93504 0.08312799999999999 0 0 0 
0.357412 0.929827 0.087807 0 0 0 
0.356722 0.931847 0.085119 0 0 0 
0.365505 0.935767 0.087481 0 0 0 
0.363552 0.934976 0.093484 0 0 0 
0.35514 0.939072 0.101979 0 0 0 
0.353456 0.937787 0.101181 0 0 0 
0.357935 0.932558 0.09606000000000001 0 0 0 
0.360662 0.933854 0.09750200000000001 0 0 0 
0.361981 0.931488 0.09493500000000001 0 0 0 
0.361401 0.937506 0.09594999999999999 0 0 0 
0.349836 0.93845 0.095669 0 0 0 
0.348675 0.94143 0.093282 0 0 0 
0.349176 0.9437140000000001 0.092194 0 0 0 
0.373182 0.926911 0.07908 0 0 0 
0.350179 0.946115 0.092538 0 0 0 
0.35263 0.947003 0.09378499999999999 0 0 0 
0.35552 0.932922 0.093251 0 0 0 
0.351398 0.9373629999999999 0.098639 0 0 0 
0.356108 0.941765 0.100937 0 0 0 
0.355459 0.945086 0.09727 0 0 0 
0.353132 0.947431 0.09923899999999999 0 0 0 
0.353724 0.944327 0.103146 0 0 0 
0.350163 0.948878 0.095745 0 0 0 
0.348572 0.94762 0.094179 0 0 0 
0.347591 0.945379 0.094097 0 0 0 
0.352551 0.941699 0.103934 0 0 0 
0.351286 0.940241 0.102837 0 0 0 
0.349826 0.939613 0.100093 0 0 0 
0.350505 0.94408 0.105589 0 0 0 
0.350765 0.948286 0.105263 0 0 0 
0.341664 0.954978 0.102259 0 0 0 
0.34237 0.955384 0.102991 0 0 0 
0.344529 0.953187 0.101304 0 0 0 
0.343865 0.953207 0.100229 0 0 0 
0.347393 0.951614 0.100252 0 0 0 
0.347403 0.951279 0.098759 0 0 0 
0.346851 0.953255 0.104148 0 0 0 
0.349428 0.950665 0.102257 0 0 0 
0.344872 0.955422 0.10611 0 0 0 
0.345254 0.953044 0.109353 0 0 0 
0.347577 0.950875 0.107749 0 0 0 
0.349714 0.949796 0.105185 0 0 0 
0.340277 0.956597 0.104754 0 0 0 
0.341402 0.956929 0.104636 0 0 0 
0.350212 0.949899 0.101287 0 0 0 
0.346375 0.9495209999999999 0.09613099999999999 0 0 0 
0.342525 0.952493 0.099261 0 0 0 
0.340098 0.954438 0.102338 0 0 0 
0.339338 0.955272 0.105328 0 0 0 
0.342348 0.9503470000000001 0.098769 0 0 0 
0.339601 0.952649 0.102469 0 0 0 
0.339018 0.953423 0.105149 0 0 0 
0.342624 0.947644 0.09941700000000001 0 0 0 
0.33984 0.950745 0.102757 0 0 0 
0.345963 0.947188 0.09568599999999999 0 0 0 
0.346266 0.944137 0.096313 0 0 0 
0.339193 0.952203 0.104852 0 0 0 
0.340027 0.954662 0.108228 0 0 0 
0.341217 0.95666 0.10837 0 0 0 
0.342818 0.9572000000000001 0.108053 0 0 0 
0.348088 0.949653 0.108621 0 0 0 
0.344908 0.9522 0.110519 0 0 0 
0.347386 0.947344 0.108179 0 0 0 
0.343868 0.950412 0.109997 0 0 0 
0.343716 0.955117 0.109681 0 0 0 
0.342539 0.95436 0.110187 0 0 0 
0.347316 0.94286 0.095169 0 0 0 
0.348357 0.940293 0.09714200000000001 0 0 0 
0.34716 0.9416949999999999 0.098441 0 0 0 
0.343522 0.945372 0.101272 0 0 0 
0.348606 0.941118 0.101661 0 0 0 
0.349838 0.942042 0.104301 0 0 0 
0.346291 0.945627 0.106874 0 0 0 
0.344884 0.944663 0.104706 0 0 0 
0.342839 0.949368 0.108805 0 0 0 
0.341891 0.948476 0.106761 0 0 0 
0.340647 0.948981 0.104276 0 0 0 
0.340838 0.9520729999999999 0.108685 0 0 0 
0.341437 0.953207 0.109809 0 0 0 
0.339677 0.953112 0.107375 0 0 0 
0.339721 0.951521 0.106197 0 0 0 
0.340517 0.951023 0.107369 0 0 0 
0.371196 0.916768 0.084885 0 0 0 
0.34887 0.908729 -0.01764 0 0 0 
0.34687 0.908677 -0.013506 0 0 0 
0.341878 0.902126 -0.011013 0 0 0 
0.341167 0.897288 -0.013541 0 0 0 
0.342235 0.894382 -0.017987 0 0 0 
0.345312 0.894 -0.021133 0 0 0 
0.347459 0.896255 -0.023751 0 0 0 
0.344183 0.906498 -0.010984 0 0 0 
0.350563 0.906296 -0.021071 0 0 0 
0.349894 0.900832 -0.023763 0 0 0 
0.343676 0.904336 -0.026898 0 0 0 
0.344878 0.909619 -0.024385 0 0 0 
0.341257 0.89951 -0.02689 0 0 0 
0.339629 0.896968 -0.023872 0 0 0 
0.338119 0.896425 -0.020382 0 0 0 
0.343984 0.911896 -0.020079 0 0 0 
0.342759 0.911369 -0.01619 0 0 0 
0.34047 0.907739 -0.013079 0 0 0 
0.338555 0.915289 -0.022815 0 0 0 
0.332892 0.917049 -0.030348 0 0 0 
0.321766 0.910867 -0.03342 0 0 0 
0.322419 0.912857 -0.034676 0 0 0 
0.326317 0.910112 -0.033391 0 0 0 
0.325914 0.907428 -0.032389 0 0 0 
0.329241 0.909143 -0.032647 0 0 0 
0.329975 0.906463 -0.031945 0 0 0 
0.327839 0.915581 -0.0344 0 0 0 
0.331044 0.913124 -0.032699 0 0 0 
0.328768 0.919655 -0.032506 0 0 0 
0.331313 0.917199 -0.031852 0 0 0 
0.324296 0.917944 -0.035909 0 0 0 
0.32041 0.915364 -0.036139 0 0 0 
0.320784 0.919677 -0.036938 0 0 0 
0.318433 0.9146300000000001 -0.03468 0 0 0 
0.332195 0.912265 -0.032238 0 0 0 
0.332567 0.900803 -0.027537 0 0 0 
0.325844 0.904801 -0.029618 0 0 0 
0.320678 0.90906 -0.030881 0 0 0 
0.317539 0.914008 -0.032276 0 0 0 
0.325367 0.904359 -0.025596 0 0 0 
0.320808 0.909282 -0.027496 0 0 0 
0.318596 0.9139429999999999 -0.028854 0 0 0 
0.326069 0.9063330000000001 -0.022344 0 0 0 
0.32182 0.911095 -0.025232 0 0 0 
0.334014 0.898567 -0.022425 0 0 0 
0.335031 0.900264 -0.016993 0 0 0 
0.319791 0.914057 -0.027042 0 0 0 
0.317518 0.919535 -0.032745 0 0 0 
0.317646 0.9201279999999999 -0.035623 0 0 0 
0.329477 0.9204290000000001 -0.030175 0 0 0 
0.325104 0.921862 -0.033988 0 0 0 
0.325105 0.922608 -0.031735 0 0 0 
0.330434 0.9199310000000001 -0.026602 0 0 0 
0.324563 0.922278 -0.029282 0 0 0 
0.322655 0.922322 -0.035664 0 0 0 
0.321082 0.923208 -0.033773 0 0 0 
0.337802 0.898634 -0.015822 0 0 0 
0.338992 0.902737 -0.013022 0 0 0 
0.33686 0.904108 -0.014399 0 0 0 
0.328046 0.909949 -0.019601 0 0 0 
0.337612 0.909952 -0.015235 0 0 0 
0.338387 0.914312 -0.018704 0 0 0 
0.329861 0.918501 -0.023253 0 0 0 
0.328966 0.91501 -0.020366 0 0 0 
0.323992 0.9201240000000001 -0.026373 0 0 0 
0.323858 0.917531 -0.024592 0 0 0 
0.322705 0.914094 -0.0242 0 0 0 
0.320727 0.920001 -0.028391 0 0 0 
0.320412 0.922373 -0.031246 0 0 0 
0.318703 0.9178539999999999 -0.029386 0 0 0 
0.320277 0.916283 -0.026915 0 0 0 
0.321388 0.918214 -0.026665 0 0 0 
0.368131 0.908486 0.079553 0 0 0 
0.364981 0.91029 0.07520499999999999 0 0 0 
0.36845 0.904733 0.07403700000000001 0 0 0 
0.373086 0.897203 0.07185800000000001 0 0 0 
0.380274 0.891424 0.073639 0 0 0 
0.370869 0.89862 0.065595 0 0 0 
0.366253 0.906234 0.06830700000000001 0 0 0 
0.36193 0.914184 0.07006900000000001 0 0 0 
0.37293 0.894278 0.058354 0 0 0 
0.179442 0.583024 0.039311 0 0 0 
0.182638 0.582989 0.036977 0 0 0 
0.18542 0.577411 0.031193 0 0 0 
0.181119 0.57539 0.033119 0 0 0 
0.177155 0.575471 0.036202 0 0 0 
0.173057 0.575322 0.036724 0 0 0 
0.168979 0.581741 0.039085 0 0 0 
0.174482 0.582528 0.040327 0 0 0 
0.16128 0.578452 0.033339 0 0 0 
0.16192 0.579943 0.03363 0 0 0 
0.161647 0.577935 0.033086 0 0 0 
0.166153 0.576505 0.03387 0 0 0 
0.163407 0.577538 0.03309 0 0 0 
0.186176 0.58151 0.032312 0 0 0 
0.187165 0.58058 0.031095 0 0 0 
0.184619 0.582273 0.034357 0 0 0 
0.169982 0.575387 0.035495 0 0 0 
0.187577 0.580255 0.030867 0 0 0 
0.18662 0.579132 0.031179 0 0 0 
0.164735 0.581194 0.036125 0 0 0 
0.177541 0.577742 0.036779 0 0 0 
0.173151 0.577377 0.037667 0 0 0 
0.170657 0.579916 0.037918 0 0 0 
0.174752 0.5801460000000001 0.038722 0 0 0 
0.167434 0.578143 0.035333 0 0 0 
0.165082 0.578609 0.033992 0 0 0 
0.181408 0.578717 0.034926 0 0 0 
0.170679 0.578027 0.037113 0 0 0 
0.178343 0.580762 0.038183 0 0 0 
0.164628 0.579729 0.034128 0 0 0 
0.16709 0.579837 0.035815 0 0 0 
0.186349 0.5806249999999999 0.031947 0 0 0 
0.18663 0.580353 0.031667 0 0 0 
0.150179 0.392696 -0.024247 0 0 0 
0.148865 0.377306 -0.014207 0 0 0 
0.18213 0.582101 0.036278 0 0 0 
0.186601 0.580564 0.032106 0 0 0 
0.184954 0.58068 0.033481 0 0 0 
0.184564 0.581854 0.034298 0 0 0 
0.185598 0.581075 0.032843 0 0 0 
0.33906 0.536483 -0.049348 0 0 0 
0.339359 0.527405 -0.038213 0 0 0 
0.369546 0.54054 -0.08393 0 0 0 
0.384332 0.524092 -0.08995 0 0 0 
0.156419 0.080886 0.002203 0 0 0 
0.235103 0.140897 -0.127223 0 0 0 
0.24151 0.168665 -0.129343 0 0 0 
0.183033 0.162508 -0.163314 0 0 0 
0.199929 0.157892 -0.158827 0 0 0 
0.24638 0.135883 -0.037089 0 0 0 
0.244115 0.108784 -0.041749 0 0 0 
0.20576 0.127317 0.004159 0 0 0 
0.200976 0.102581 -0.003009 0 0 0 
0.233628 0.083296 -0.02749 0 0 0 
0.210148 0.102559 -0.149269 0 0 0 
0.211554 0.127388 -0.147866 0 0 0 
0.223351 0.122883 -0.138428 0 0 0 
0.222604 0.098208 -0.140443 0 0 0 
0.163028 0.141741 -0.158602 0 0 0 
0.164903 0.168266 -0.160778 0 0 0 
0.255423 0.170623 -0.052034 0 0 0 
0.257891 0.175719 -0.071909 0 0 0 
0.253605 0.189649 -0.11051 0 0 0 
0.244913 0.194782 -0.127809 0 0 0 
0.218362 0.207478 -0.152786 0 0 0 
0.232101 0.200902 -0.141842 0 0 0 
0.190722 0.156582 0.01774 0 0 0 
0.175999 0.186127 0.022118 0 0 0 
0.249896 0.167497 -0.032464 0 0 0 
0.134253 0.161158 0.02361 0 0 0 
0.188125 0.238799 -0.169671 0 0 0 
0.207711 0.23855 -0.161353 0 0 0 
0.257999 0.182692 -0.091317 0 0 0 
0.159084 0.34653 0.02013 0 0 0 
0.155731 0.332734 0.032114 0 0 0 
0.17148 0.338244 0.032587 0 0 0 
0.174197 0.352076 0.02078 0 0 0 
0.186225 0.342164 0.031105 0 0 0 
0.201238 0.343787 0.027815 0 0 0 
0.21542 0.3435 0.022856 0 0 0 
0.244286 0.344417 0.007114 0 0 0 
0.236615 0.34494 0.012486 0 0 0 
0.257345 0.341595 -0.003441 0 0 0 
0.250702 0.342406 0.003021 0 0 0 
0.265086 0.329028 -0.008253 0 0 0 
0.27215 0.316853 -0.017109 0 0 0 
0.278306 0.305937 -0.028292 0 0 0 
0.277283 0.32591 -0.033373 0 0 0 
0.274144 0.30002 -0.011421 0 0 0 
0.267974 0.312478 -0.002331 0 0 0 
0.25957 0.322869 0.005475 0 0 0 
0.138604 0.285792 0.041412 0 0 0 
0.137928 0.256793 0.036801 0 0 0 
0.151999 0.410753 -0.031327 0 0 0 
0.465665 0.694344 0.033876 0 0 0 
0.407682 0.818616 0.002438 0 0 0 
0.187957 0.417457 -0.16538 0 0 0 
0.173831 0.414295 -0.166051 0 0 0 
0.159269 0.403125 -0.171319 0 0 0 
0.160642 0.412537 -0.170393 0 0 0 
0.249762 0.445876 -0.15429 0 0 0 
0.240389 0.431753 -0.16269 0 0 0 
0.226206 0.419095 -0.167299 0 0 0 
0.206368 0.410833 -0.169077 0 0 0 
0.239864 0.193394 -0.011613 0 0 0 
0.189235 0.384332 -0.171975 0 0 0 
0.207704 0.400019 -0.172351 0 0 0 
0.228241 0.407106 -0.173097 0 0 0 
0.246941 0.418089 -0.167018 0 0 0 
0.261462 0.433632 -0.158408 0 0 0 
0.274999 0.434038 -0.156503 0 0 0 
0.302224 0.422938 -0.153949 0 0 0 
0.313779 0.430056 -0.151676 0 0 0 
0.309227 0.445817 -0.146569 0 0 0 
0.317584 0.454832 -0.146435 0 0 0 
0.324138 0.438585 -0.147993 0 0 0 
0.374282 0.492847 -0.106992 0 0 0 
0.381824 0.49683 -0.097279 0 0 0 
0.392332 0.499032 -0.087064 0 0 0 
0.396643 0.496843 -0.07918500000000001 0 0 0 
0.396517 0.487048 -0.072911 0 0 0 
0.391727 0.472846 -0.06758599999999999 0 0 0 
0.381849 0.458395 -0.066763 0 0 0 
0.345018 0.416699 -0.072716 0 0 0 
0.336866 0.403492 -0.076351 0 0 0 
0.318499 0.359058 -0.085772 0 0 0 
0.311598 0.342327 -0.091362 0 0 0 
0.268052 0.295118 -0.127741 0 0 0 
0.285809 0.303628 -0.120708 0 0 0 
0.25464 0.270111 -0.129343 0 0 0 
0.225063 -0.006009 -0.176307 0 0 0 
0.224415 0.012913 -0.17289 0 0 0 
0.243684 0.01305 -0.161641 0 0 0 
0.240852 -0.004716 -0.163653 0 0 0 
0.160693 0.059202 -0.174962 0 0 0 
0.18011 0.057478 -0.171764 0 0 0 
0.27109 0.004278 -0.07653699999999999 0 0 0 
0.273535 0.008276 -0.10033 0 0 0 
0.268573 0.01077 -0.124783 0 0 0 
0.258669 0.012757 -0.145803 0 0 0 
0.261092 -0.000845 -0.054108 0 0 0 
0.154536 -0.025997 -0.010054 0 0 0 
0.178021 -0.023573 -0.008992999999999999 0 0 0 
0.101156 -0.026866 -0.016615 0 0 0 
0.117409 -0.027324 -0.012891 0 0 0 
0.246059 -0.006928 -0.035203 0 0 0 
0.134161 -0.027591 -0.01076 0 0 0 
0.202743 -0.019493 -0.010993 0 0 0 
0.226771 -0.013619 -0.020189 0 0 0 
0.219554 0.031486 -0.168185 0 0 0 
0.201316 0.032695 -0.174331 0 0 0 
0.198264 0.054816 -0.16744 0 0 0 
0.191244 0.306705 -0.171832 0 0 0 
0.214086 0.311614 -0.164117 0 0 0 
0.235086 0.319627 -0.155794 0 0 0 
0.249801 0.331657 -0.15573 0 0 0 
0.265732 0.337448 -0.150355 0 0 0 
0.266264 0.326236 -0.145696 0 0 0 
0.251145 0.320712 -0.150531 0 0 0 
0.297197 0.357775 -0.129226 0 0 0 
0.307317 0.368278 -0.122289 0 0 0 
0.309637 0.362121 -0.117651 0 0 0 
0.300162 0.350781 -0.124679 0 0 0 
0.317482 0.372313 -0.111249 0 0 0 
0.325648 0.383097 -0.105158 0 0 0 
0.334807 0.395068 -0.100189 0 0 0 
0.342624 0.407746 -0.094987 0 0 0 
0.344866 0.415693 -0.111182 0 0 0 
0.336463 0.404285 -0.11607 0 0 0 
0.294815 0.366943 -0.133264 0 0 0 
0.280068 0.357884 -0.14413 0 0 0 
0.190455 0.333764 -0.172517 0 0 0 
0.172042 0.332045 -0.175321 0 0 0 
0.282509 0.305203 -0.043838 0 0 0 
0.28872 0.305483 -0.058776 0 0 0 
0.294791 0.307194 -0.07177799999999999 0 0 0 
0.298652 0.306543 -0.082887 0 0 0 
0.300773 0.308425 -0.09302199999999999 0 0 0 
0.299237 0.309538 -0.102644 0 0 0 
0.296073 0.309532 -0.109994 0 0 0 
0.304811 0.325319 -0.09918100000000001 0 0 0 
0.292655 0.311869 -0.115659 0 0 0 
0.301782 0.33141 -0.105941 0 0 0 
0.288537 0.318978 -0.123177 0 0 0 
0.284807 0.327118 -0.130371 0 0 0 
0.284728 0.33768 -0.135154 0 0 0 
0.282597 0.347323 -0.139356 0 0 0 
0.248936 0.342467 -0.161 0 0 0 
0.26434 0.349646 -0.154961 0 0 0 
0.231421 0.352942 -0.167989 0 0 0 
0.231869 0.366263 -0.17149 0 0 0 
0.231728 0.328847 -0.159487 0 0 0 
0.23075 0.338047 -0.162551 0 0 0 
0.221231 0.462434 -0.149577 0 0 0 
0.208714 0.451992 -0.154453 0 0 0 
0.375056 0.451783 -0.077959 0 0 0 
0.382569 0.461706 -0.07455100000000001 0 0 0 
0.376465 0.45149 -0.07207 0 0 0 
0.372049 0.44637 -0.074806 0 0 0 
0.386065 0.472122 -0.07986699999999999 0 0 0 
0.377889 0.463738 -0.08988500000000001 0 0 0 
0.386466 0.478999 -0.085234 0 0 0 
0.377747 0.458958 -0.08325200000000001 0 0 0 
0.383319 0.48019 -0.092515 0 0 0 
0.377208 0.465667 -0.095829 0 0 0 
0.378821 0.481307 -0.100483 0 0 0 
0.374863 0.468531 -0.103056 0 0 0 
0.372475 0.470575 -0.108693 0 0 0 
0.374388 0.47871 -0.107528 0 0 0 
0.354216 0.444587 -0.123728 0 0 0 
0.361381 0.453862 -0.118901 0 0 0 
0.368083 0.463418 -0.113586 0 0 0 
0.352239 0.420192 -0.08970400000000001 0 0 0 
0.360951 0.4324 -0.08713799999999999 0 0 0 
0.369163 0.445567 -0.08559799999999999 0 0 0 
0.370724 0.44906 -0.091381 0 0 0 
0.362477 0.436163 -0.094087 0 0 0 
0.353544 0.423667 -0.096995 0 0 0 
0.189153 0.321395 -0.172936 0 0 0 
0.210471 0.324524 -0.167482 0 0 0 
0.316876 0.377804 -0.116454 0 0 0 
0.325658 0.386665 -0.111921 0 0 0 
0.33519 0.397905 -0.107427 0 0 0 
0.343534 0.410502 -0.102304 0 0 0 
0.327501 0.393406 -0.118502 0 0 0 
0.31703 0.383908 -0.122619 0 0 0 
0.305498 0.375851 -0.127723 0 0 0 
0.212186 0.337137 -0.167728 0 0 0 
0.170051 0.320141 -0.176943 0 0 0 
0.274075 0.479854 -0.076752 0 0 0 
0.282369 0.489 -0.103548 0 0 0 
0.295579 0.484009 -0.122489 0 0 0 
0.308775 0.471137 -0.136945 0 0 0 
0.160352 0.447512 -0.157332 0 0 0 
0.438506 0.604729 0.029901 0 0 0 
0.15001 0.267945 -0.180591 0 0 0 
0.150729 0.289783 -0.179898 0 0 0 
0.145495 0.199466 -0.17316 0 0 0 
0.146555 0.223916 -0.176941 0 0 0 
0.178727 0.083788 -0.164373 0 0 0 
0.160053 0.086159 -0.164849 0 0 0 
0.161266 0.114266 -0.159619 0 0 0 
0.139809 0.039971 -0.188761 0 0 0 
0.139062 0.063027 -0.176512 0 0 0 
0.141629 0.119539 -0.155673 0 0 0 
0.144511 0.147659 -0.155385 0 0 0 
0.167849 0.2406 -0.174175 0 0 0 
0.170828 0.304805 -0.176498 0 0 0 
0.152749 0.320738 -0.180092 0 0 0 
0.153767 0.330764 -0.179504 0 0 0 
0.155255 0.343944 -0.179439 0 0 0 
0.223602 0.313995 0.038219 0 0 0 
0.225687 0.329198 0.028343 0 0 0 
0.213291 0.329135 0.033266 0 0 0 
0.210633 0.313819 0.042468 0 0 0 
0.243662 0.31298 0.026062 0 0 0 
0.244663 0.328251 0.016792 0 0 0 
0.236098 0.328966 0.022723 0 0 0 
0.234935 0.313663 0.032519 0 0 0 
0.25263 0.326452 0.010684 0 0 0 
0.25194 0.309839 0.020024 0 0 0 
0.221 0.296449 0.045817 0 0 0 
0.232333 0.295856 0.04098 0 0 0 
0.20764 0.295984 0.048535 0 0 0 
0.249423 0.293709 0.027265 0 0 0 
0.241228 0.295356 0.034037 0 0 0 
0.14898 0.485587 -0.014139 0 0 0 
0.14652 0.483809 0.000773 0 0 0 
0.140975 0.513607 0.02904 0 0 0 
0.141347 0.518203 0.029373 0 0 0 
0.143883 0.490687 -0.035256 0 0 0 
0.144321 0.484387 -0.039776 0 0 0 
0.138838 0.499745 0.019086 0 0 0 
0.138207 0.488246 0.01307 0 0 0 
0.139732 0.535267 0.038694 0 0 0 
0.139797 0.532492 0.03638 0 0 0 
0.139526 0.524156 0.03385 0 0 0 
0.13941 0.521027 0.031859 0 0 0 
0.144496 0.47634 -0.042311 0 0 0 
0.14304 0.490478 -0.028288 0 0 0 
0.144762 0.457738 -0.046585 0 0 0 
0.144705 0.448471 -0.050545 0 0 0 
0.153381 0.440015 -0.050069 0 0 0 
0.153241 0.429822 -0.047148 0 0 0 
0.138223 0.307462 0.038303 0 0 0 
0.146489 0.347065 0.004873 0 0 0 
0.143953 0.340057 0.020808 0 0 0 
0.147669 0.361878 -0.0047 0 0 0 
0.152919 0.421216 -0.038871 0 0 0 
0.144517 0.467219 -0.043582 0 0 0 
0.138802 0.509906 0.02695 0 0 0 
0.139166 0.506188 0.022166 0 0 0 
0.139832 0.529764 0.035179 0 0 0 
0.139785 0.526915 0.034448 0 0 0 
0.136574 0.391433 -0.023629 0 0 0 
0.134179 0.376141 -0.013411 0 0 0 
0.14071 0.326714 0.032409 0 0 0 
0.123697 0.280581 0.038474 0 0 0 
0.12204 0.249239 0.030379 0 0 0 
0.139395 0.408623 -0.032592 0 0 0 
0.122317 0.211713 0.011389 0 0 0 
0.284144 -0.167979 -0.163609 0 0 0 
0.272655 -0.175362 -0.192307 0 0 0 
0.270245 -0.156295 -0.203973 0 0 0 
0.280328 -0.149226 -0.183385 0 0 0 
0.282028 -0.115063 -0.154617 0 0 0 
0.275109 -0.091145 -0.144459 0 0 0 
0.271775 -0.06632 -0.136146 0 0 0 
0.251403 -0.157605 -0.223624 0 0 0 
0.220462 -0.132065 -0.241524 0 0 0 
0.222277 -0.153954 -0.23797 0 0 0 
0.262759 -0.062312 -0.161893 0 0 0 
0.266476 -0.08479 -0.172324 0 0 0 
0.274092 -0.137437 -0.196232 0 0 0 
0.275209 -0.124024 -0.189974 0 0 0 
0.283347 -0.134601 -0.16786 0 0 0 
0.249386 -0.137143 -0.228641 0 0 0 
0.265557 -0.139093 -0.211935 0 0 0 
0.18951 -0.005889 -0.198554 0 0 0 
0.195596 -0.022101 -0.211974 0 0 0 
0.171098 -0.022768 -0.21984 0 0 0 
0.256563 -0.003904 -0.145801 0 0 0 
0.243581 -0.021758 -0.169015 0 0 0 
0.123131 -0.143956 -0.227543 0 0 0 
0.263962 -0.121747 -0.210606 0 0 0 
0.216338 -0.109457 -0.240834 0 0 0 
0.24483 -0.115501 -0.227506 0 0 0 
0.220934 -0.052979 -0.223079 0 0 0 
0.239524 -0.05497 -0.206042 0 0 0 
0.238164 -0.074546 -0.217616 0 0 0 
0.218947 -0.070729 -0.23359 0 0 0 
0.252282 -0.058884 -0.186073 0 0 0 
0.250094 -0.03948 -0.178148 0 0 0 
0.218845 -0.035695 -0.212854 0 0 0 
0.236393 -0.037232 -0.196876 0 0 0 
0.230473 -0.021275 -0.186087 0 0 0 
0.252867 -0.07902000000000001 -0.196108 0 0 0 
0.216745 -0.090116 -0.23968 0 0 0 
0.190426 -0.093434 -0.250504 0 0 0 
0.163418 -0.099026 -0.248888 0 0 0 
0.13601 -0.106214 -0.243467 0 0 0 
0.140196 -0.08759400000000001 -0.246503 0 0 0 
0.21375 -0.020608 -0.200572 0 0 0 
0.205126 0.013415 -0.182091 0 0 0 
0.208947 -0.005406 -0.187753 0 0 0 
0.195595 0.08064300000000001 -0.160508 0 0 0 
0.151182 -0.38444 -0.095177 0 0 0 
0.079996 -0.186086 -0.131041 0 0 0 
0.078863 -0.183377 -0.11734 0 0 0 
0.247137 -0.145076 -0.041921 0 0 0 
0.284743 -0.164233 -0.109117 0 0 0 
0.286996 -0.148967 -0.140935 0 0 0 
0.082595 -0.184982 -0.095099 0 0 0 
0.089147 -0.185837 -0.07430100000000001 0 0 0 
0.222248 -0.150994 -0.025565 0 0 0 
0.160016 -0.186049 -0.023491 0 0 0 
0.08064399999999999 -0.183631 -0.108535 0 0 0 
0.272698 -0.105667 -0.181238 0 0 0 
0.259344 -0.101176 -0.204837 0 0 0 
0.23854 -0.09478499999999999 -0.221842 0 0 0 
0.188625 -0.109186 -0.250965 0 0 0 
0.159322 -0.112794 -0.247281 0 0 0 
0.133161 -0.120168 -0.239389 0 0 0 
0.090434 -0.148272 -0.047402 0 0 0 
0.076483 -0.137849 -0.044078 0 0 0 
0.08594 -0.137856 -0.041858 0 0 0 
0.067873 -0.123875 -0.041202 0 0 0 
0.066539 -0.138306 -0.048664 0 0 0 
0.07749399999999999 -0.150497 -0.052691 0 0 0 
0.06736300000000001 -0.150186 -0.057031 0 0 0 
0.06643300000000001 -0.159478 -0.064986 0 0 0 
0.150853 -0.047428 -0.014837 0 0 0 
0.17425 -0.045087 -0.013714 0 0 0 
0.097138 -0.047104 -0.023545 0 0 0 
0.113092 -0.048006 -0.019855 0 0 0 
0.244896 -0.024952 -0.03554 0 0 0 
0.129312 -0.048752 -0.016731 0 0 0 
0.199735 -0.040413 -0.012691 0 0 0 
0.224823 -0.033276 -0.02031 0 0 0 
0.142717 -0.0455 -0.24007 0 0 0 
0.14134 -0.021206 -0.229461 0 0 0 
0.082256 -0.047605 -0.028547 0 0 0 
0.139189 0.483851 0.000455 0 0 0 
0.141555 0.486068 -0.015854 0 0 0 
0.143598 0.650457 0.058775 0 0 0 
0.157623 0.506585 -0.135283 0 0 0 
0.141468 0.589477 0.051077 0 0 0 
0.139389 0.5179859999999999 0.02917 0 0 0 
0.139531 0.536415 0.042381 0 0 0 
0.144491 0.438511 -0.051921 0 0 0 
0.143817 0.428324 -0.047775 0 0 0 
0.07327400000000001 -0.186007 -0.126354 0 0 0 
0.141752 0.419038 -0.040408 0 0 0 
0.075544 -0.185588 -0.134312 0 0 0 
0.14561 0.17507 -0.159207 0 0 0 
0.062406 -0.76253 -0.245947 0 0 0 
0.06604699999999999 -0.762527 -0.26412 0 0 0 
0.063501 -0.786893 -0.258272 0 0 0 
0.059414 -0.786651 -0.242608 0 0 0 
0.091074 -0.766393 -0.284871 0 0 0 
0.07484300000000001 -0.763938 -0.277598 0 0 0 
0.108038 -0.770194 -0.281517 0 0 0 
0.121561 -0.774281 -0.268617 0 0 0 
0.108693 -0.794754 -0.266925 0 0 0 
0.097466 -0.792021 -0.278133 0 0 0 
0.124749 -0.775055 -0.260368 0 0 0 
0.1165 -0.798315 -0.249663 0 0 0 
0.127057 -0.776339 -0.249733 0 0 0 
0.128498 -0.77776 -0.225928 0 0 0 
0.118317 -0.799341 -0.229157 0 0 0 
0.116478 -0.779884 -0.207788 0 0 0 
0.10634 -0.800716 -0.210092 0 0 0 
0.096487 -0.777484 -0.199176 0 0 0 
0.06361 -0.765415 -0.227568 0 0 0 
0.057412 -0.789124 -0.223485 0 0 0 
0.084316 -0.789145 -0.280498 0 0 0 
0.072717 -0.787714 -0.273644 0 0 0 
0.067008 -0.787135 -0.266501 0 0 0 
0.07024 -0.763506 -0.271407 0 0 0 
0.058725 -0.816192 -0.253739 0 0 0 
0.050765 -0.81429 -0.238356 0 0 0 
0.077124 -0.817059 -0.280345 0 0 0 
0.06820900000000001 -0.817076 -0.272046 0 0 0 
0.09798900000000001 -0.820546 -0.267268 0 0 0 
0.088867 -0.818638 -0.279529 0 0 0 
0.109469 -0.824712 -0.248521 0 0 0 
0.103202 -0.822268 -0.257866 0 0 0 
0.112142 -0.796212 -0.259392 0 0 0 
0.110318 -0.824037 -0.231375 0 0 0 
0.097777 -0.82575 -0.208325 0 0 0 
0.049558 -0.8146640000000001 -0.220204 0 0 0 
0.06329899999999999 -0.816659 -0.263362 0 0 0 
0.07162 -0.916198 -0.065303 0 0 0 
0.07134600000000001 -0.912311 -0.06569 0 0 0 
0.068171 -0.912261 -0.065028 0 0 0 
0.06690500000000001 -0.9166 -0.06464200000000001 0 0 0 
0.032344 -0.9096109999999999 -0.057085 0 0 0 
0.031937 -0.904778 -0.055866 0 0 0 
0.025353 -0.90489 -0.057471 0 0 0 
0.023828 -0.90986 -0.059278 0 0 0 
0.051964 -0.914199 -0.05902 0 0 0 
0.052163 -0.91759 -0.062168 0 0 0 
0.055788 -0.918465 -0.062169 0 0 0 
0.057646 -0.915048 -0.058717 0 0 0 
0.093565 -0.914774 -0.093503 0 0 0 
0.093902 -0.918897 -0.095496 0 0 0 
0.097095 -0.918957 -0.096598 0 0 0 
0.098634 -0.915029 -0.095598 0 0 0 
0.08013099999999999 -0.917092 -0.077666 0 0 0 
0.08008800000000001 -0.920607 -0.079842 0 0 0 
0.083158 -0.920585 -0.080998 0 0 0 
0.08486299999999999 -0.918116 -0.079857 0 0 0 
0.034314 -0.900587 -0.078181 0 0 0 
0.023006 -0.8974490000000001 -0.081909 0 0 0 
0.023941 -0.902351 -0.06669799999999999 0 0 0 
0.03352 -0.9025570000000001 -0.064001 0 0 0 
0.018181 -0.907919 -0.07173300000000001 0 0 0 
0.017619 -0.903846 -0.088424 0 0 0 
0.022215 -0.912973 -0.088786 0 0 0 
0.022288 -0.914574 -0.074143 0 0 0 
0.033161 -0.916099 -0.084119 0 0 0 
0.031562 -0.916868 -0.071239 0 0 0 
0.038587 -0.910809 -0.07888000000000001 0 0 0 
0.038841 -0.909247 -0.065306 0 0 0 
0.058364 -0.9097499999999999 -0.07666000000000001 0 0 0 
0.054719 -0.90341 -0.076104 0 0 0 
0.056585 -0.9076920000000001 -0.06401900000000001 0 0 0 
0.061159 -0.912444 -0.065169 0 0 0 
0.046076 -0.902432 -0.076283 0 0 0 
0.050802 -0.907048 -0.064013 0 0 0 
0.042157 -0.911241 -0.076975 0 0 0 
0.046142 -0.916157 -0.080993 0 0 0 
0.048885 -0.918093 -0.069162 0 0 0 
0.04502 -0.911444 -0.064454 0 0 0 
0.054488 -0.916136 -0.08053399999999999 0 0 0 
0.05638 -0.9187340000000001 -0.069073 0 0 0 
0.072325 -0.90426 -0.082439 0 0 0 
0.063018 -0.9046419999999999 -0.080484 0 0 0 
0.06591900000000001 -0.909782 -0.070632 0 0 0 
0.071959 -0.909691 -0.071161 0 0 0 
0.062 -0.916561 -0.071246 0 0 0 
0.059733 -0.913693 -0.08086599999999999 0 0 0 
0.063693 -0.917795 -0.082868 0 0 0 
0.06569 -0.920485 -0.072658 0 0 0 
0.07174899999999999 -0.9172979999999999 -0.08327 0 0 0 
0.07162200000000001 -0.920179 -0.07232 0 0 0 
0.075652 -0.91078 -0.081512 0 0 0 
0.07494099999999999 -0.915208 -0.07158 0 0 0 
0.090435 -0.911292 -0.094074 0 0 0 
0.08797000000000001 -0.904735 -0.094016 0 0 0 
0.08654299999999999 -0.910685 -0.084662 0 0 0 
0.088557 -0.916483 -0.08577899999999999 0 0 0 
0.080738 -0.904826 -0.090737 0 0 0 
0.081481 -0.909784 -0.082848 0 0 0 
0.07673000000000001 -0.912992 -0.081873 0 0 0 
0.077053 -0.909871 -0.088695 0 0 0 
0.079231 -0.917409 -0.09188200000000001 0 0 0 
0.07879700000000001 -0.920252 -0.084414 0 0 0 
0.086807 -0.918221 -0.094877 0 0 0 
0.084769 -0.920926 -0.08592 0 0 0 
0.10255 -0.904797 -0.107769 0 0 0 
0.100852 -0.908328 -0.099826 0 0 0 
0.102729 -0.913724 -0.101373 0 0 0 
0.104253 -0.911631 -0.110089 0 0 0 
0.09628 -0.903988 -0.103601 0 0 0 
0.095411 -0.907653 -0.097524 0 0 0 
0.09131300000000001 -0.911999 -0.09747599999999999 0 0 0 
0.092447 -0.909369 -0.102414 0 0 0 
0.09329800000000001 -0.9171899999999999 -0.105163 0 0 0 
0.092527 -0.919031 -0.099546 0 0 0 
0.09991800000000001 -0.917312 -0.108586 0 0 0 
0.09873999999999999 -0.919547 -0.101535 0 0 0 
0.039295 -0.896474 -0.091534 0 0 0 
0.024401 -0.89277 -0.094421 0 0 0 
0.024915 -0.913971 -0.063623 0 0 0 
0.018628 -0.901516 -0.100451 0 0 0 
0.03022 -0.91425 -0.061993 0 0 0 
0.038491 -0.914754 -0.095392 0 0 0 
0.023017 -0.910797 -0.100683 0 0 0 
0.039852 -0.909533 -0.084684 0 0 0 
0.056535 -0.9109930000000001 -0.058749 0 0 0 
0.057879 -0.916473 -0.09507 0 0 0 
0.058184 -0.91135 -0.08577600000000001 0 0 0 
0.053547 -0.910532 -0.058695 0 0 0 
0.057364 -0.898579 -0.09066399999999999 0 0 0 
0.075571 -0.899939 -0.098247 0 0 0 
0.06772400000000001 -0.91984 -0.066869 0 0 0 
0.070544 -0.91945 -0.066911 0 0 0 
0.07617400000000001 -0.917116 -0.09989199999999999 0 0 0 
0.077222 -0.908931 -0.09043900000000001 0 0 0 
0.085147 -0.914055 -0.080058 0 0 0 
0.091095 -0.917391 -0.10851 0 0 0 
0.092725 -0.908687 -0.102171 0 0 0 
0.081763 -0.913223 -0.078981 0 0 0 
0.09205099999999999 -0.900243 -0.10792 0 0 0 
0.098399 -0.911708 -0.096118 0 0 0 
0.1019 -0.917412 -0.118414 0 0 0 
0.107416 -0.91006 -0.121572 0 0 0 
0.095598 -0.91096 -0.094594 0 0 0 
0.104124 -0.902489 -0.116078 0 0 0 
0.063458 -0.791515 -0.210218 0 0 0 
0.06852999999999999 -0.769254 -0.212477 0 0 0 
0.079029 -0.775162 -0.202157 0 0 0 
0.07235 -0.796147 -0.202584 0 0 0 
0.08721 -0.7978690000000001 -0.200212 0 0 0 
0.0544 -0.818188 -0.204003 0 0 0 
0.067344 -0.821404 -0.195643 0 0 0 
0.082126 -0.823991 -0.196959 0 0 0 
0.109511 -0.845623 -0.231778 0 0 0 
0.105847 -0.843124 -0.250725 0 0 0 
0.09900100000000001 -0.8407249999999999 -0.260717 0 0 0 
0.094296 -0.8392039999999999 -0.270694 0 0 0 
0.083688 -0.838951 -0.282601 0 0 0 
0.043983 -0.835228 -0.21413 0 0 0 
0.048527 -0.837205 -0.194611 0 0 0 
0.063015 -0.840851 -0.183777 0 0 0 
0.07832699999999999 -0.84341 -0.188312 0 0 0 
0.024881 -0.886943 -0.111382 0 0 0 
0.039656 -0.88535 -0.10719 0 0 0 
0.040431 -0.875289 -0.125586 0 0 0 
0.026426 -0.882255 -0.130127 0 0 0 
0.056827 -0.8885150000000001 -0.107774 0 0 0 
0.060141 -0.875217 -0.127684 0 0 0 
0.07498100000000001 -0.891265 -0.113954 0 0 0 
0.075859 -0.881678 -0.131588 0 0 0 
0.091847 -0.894595 -0.121901 0 0 0 
0.09087099999999999 -0.8869359999999999 -0.138496 0 0 0 
