ply
format ascii 1.0
comment VCGLIB generated
element vertex 1524
property double x
property double y
property double z
element face 0
property list uchar int vertex_indices
end_header
-0.052705 0.56769 0.036161 
-0.047718 0.575967 0.042138 
-0.050233 0.581441 0.038864 
-0.059418 0.571648 0.022257 
-0.060132 0.567643 0.006535 
-0.05944 0.565571 -0.010207 
-0.05611 0.556931 -0.020408 
-0.054229 0.6808340000000001 -0.048178 
-0.062915 0.665757 -0.040801 
-0.025371 0.715886 -0.06252000000000001 
-0.039663 0.699746 -0.055119 
-0.065098 0.653409 -0.039431 
-0.007048 0.730025 -0.06646299999999999 
-0.007197 0.541246 0.059157 
-0.005651 0.544853 0.060824 
-0.013627 0.542646 0.05473 
-0.007612 0.520219 0.051933 
-0.010002 0.5164530000000001 0.046442 
-0.004548 0.515057 0.048141 
-0.002993 0.518992 0.053443 
-0.013659 0.496059 0.010349 
-0.02311 0.499826 0.008083999999999999 
-0.01191 0.495186 -0.017344 
-0.02113 0.498256 -0.022438 
-0.007581 0.5528459999999999 0.067119 
-0.007675 0.552258 0.06473 
-0.006043 0.552349 0.064675 
-0.006758 0.552603 0.06776 
-0.018961 0.530687 0.045805 
-0.003287 0.533936 0.060239 
-0.0038 0.5300820000000001 0.057591 
-0.00098 0.529902 0.058436 
-0.0008319999999999999 0.533234 0.060713 
-0.037026 0.514808 -0.012893 
-0.032439 0.5144 -0.022575 
-0.043662 0.507798 -0.056406 
-0.044086 0.519018 -0.052424 
-0.042064 0.539343 -0.060639 
-0.021236 0.54989 -0.091027 
-0.012829 0.552891 -0.096688 
-0.002656 0.556917 -0.100343 
-0.002805 0.577437 -0.09918100000000001 
-0.02299 0.5049979999999999 -0.007705 
-0.021891 0.505787 -0.016116 
-0.012582 0.501041 -0.01225 
-0.012951 0.500092 -0.003216 
-0.002472 0.548111 0.067827 
-0.004065 0.547791 0.06497 
-0.001199 0.545226 0.065779 
-0.00096 0.546737 0.068994 
-0.00738 0.54969 0.06332699999999999 
-0.005414 0.547199 0.062718 
-0.005777 0.548812 0.063586 
-0.007834000000000001 0.551311 0.06500300000000001 
-0.007188 0.552654 0.067968 
-0.003162 0.551489 0.07432 
-0.002643 0.549474 0.077418 
-0.005363 0.552572 0.071614 
-0.004127 0.55015 0.066339 
-0.004614 0.54962 0.06472899999999999 
-0.005932 0.550465 0.06360399999999999 
-0.0071 0.550917 0.063693 
-0.003994 0.552411 0.07206899999999999 
-0.006051 0.552576 0.06993000000000001 
-0.002174 0.568093 0.077567 
-0.004734 0.4938 -0.014719 
-0.004929 0.499888 -0.009660999999999999 
-0.0191 0.528969 0.044004 
-0.018088 0.600707 0.06959899999999999 
-0.042443 0.57248 0.046516 
-0.021759 0.5709920000000001 0.05404 
-0.022825 0.577166 0.055636 
-0.02895 0.57516 0.053401 
-0.028741 0.567572 0.052539 
-0.009337 0.5971880000000001 0.06768100000000001 
-0.005493 0.59262 0.064636 
-0.001478 0.591553 0.070295 
-0.005614 0.58738 0.06254800000000001 
-0.008352 0.583301 0.059295 
-0.006749 0.57938 0.062779 
-0.002234 0.582738 0.06958499999999999 
-0.042019 0.597494 0.056174 
-0.03959 0.596475 0.056943 
-0.011278 0.576748 0.058792 
-0.012407 0.580834 0.057483 
-0.017281 0.57887 0.056617 
-0.015996 0.574011 0.056024 
-0.035326 0.573043 0.050373 
-0.048078 0.597495 0.048675 
-0.04358 0.587574 0.044381 
-0.052715 0.583869 -0.051121 
-0.054661 0.596908 -0.053922 
-0.057177 0.567125 -0.03718 
-0.05518 0.571381 -0.039656 
-0.050661 0.568544 -0.038004 
-0.055434 0.563648 -0.034357 
-0.065342 0.622039 -0.035642 
-0.065474 0.620223 -0.031991 
-0.067301 0.627316 -0.029922 
-0.065819 0.629467 -0.036554 
-0.066258 0.620413 -0.027614 
-0.06473 0.616999 -0.028096 
-0.065883 0.615484 -0.025576 
-0.06757000000000001 0.623508 -0.023831 
-0.066857 0.618569 -0.016955 
-0.06941600000000001 0.628961 -0.009952000000000001 
-0.069108 0.634368 -0.01908 
-0.067887 0.610225 0.005133 
-0.067436 0.621381 -0.001551 
-0.067069 0.6131799999999999 -0.012731 
-0.066936 0.604443 -0.010349 
-0.058656 0.571779 -0.022573 
-0.057097 0.565418 -0.029935 
-0.05041 0.574723 -0.043979 
-0.036648 0.648957 -0.092449 
-0.046307 0.640966 -0.08118 
-0.052861 0.62825 -0.067812 
-0.056531 0.619404 -0.058278 
-0.024911 0.658161 -0.103965 
-0.008208999999999999 0.661978 -0.113889 
-0.066493 0.594903 0.000673 
-0.062961 0.593017 -0.01328 
-0.042297 0.620555 -0.08174099999999999 
-0.033191 0.62902 -0.095023 
-0.048969 0.613527 -0.07022 
-0.053802 0.607718 -0.061041 
-0.021478 0.637987 -0.107021 
-0.004474 0.6375 -0.114251 
-0.001252 0.615069 -0.106356 
-0.060705 0.5763200000000001 -0.034034 
-0.061173 0.570427 -0.035065 
-0.059556 0.569091 -0.03398 
-0.058577 0.574217 -0.029884 
-0.061052 0.581603 -0.019062 
-0.063264 0.579972 -0.005423 
-0.001885 0.574634 0.07417899999999999 
-0.005833 0.496698 0.040009 
-0.002774 0.508587 0.045522 
-0.002739 0.540227 0.061954 
-0.003007 0.536763 0.061106 
-0.000653 0.535978 0.061404 
-0.000386 0.539184 0.062312 
-0.013007 0.5951650000000001 0.06304 
-0.002174 0.597469 -0.098635 
-0.004147 0.534284 -0.104057 
-0.004688 0.512673 -0.108368 
-0.025799 0.497907 -0.111635 
-0.015873 0.495244 -0.114219 
-0.00034 0.542515 0.063915 
-0.002542 0.54362 0.063322 
-0.00349 0.551172 0.069718 
-0.007814 0.530517 0.055774 
-0.004789 0.548219 0.064176 
-0.00325 0.545828 0.06426900000000001 
0.000909 0.5447070000000001 0.066057 
0.001101 0.541801 0.06365700000000001 
-0.023715 0.581356 0.057133 
-0.024287 0.585315 0.058047 
-0.002105 0.54971 0.071559 
-0.000797 0.547789 0.073251 
-0.036726 0.488688 -0.034965 
-0.042446 0.494807 -0.047709 
0.001029 0.529931 0.058964 
0.001007 0.532922 0.060895 
-0.063808 0.599747 -0.020817 
-0.06680700000000001 0.607307 -0.021224 
-0.066954 0.605382 -0.027248 
-0.06311899999999999 0.600046 -0.027455 
-0.006427 0.485752 -0.017523 
-0.044766 0.500757 -0.063515 
-0.005722 0.493287 -0.115712 
-0.039184 0.591697 0.050389 
-0.041185 0.593077 0.050273 
-0.015954 0.593344 0.061178 
-0.009977 0.524612 0.052058 
-0.008895999999999999 0.527871 0.052915 
-0.005255 0.498858 -0.0007739999999999999 
0.000781 0.546365 0.06944699999999999 
-0.06528399999999999 0.613588 -0.032688 
-0.065181 0.611174 -0.033013 
-0.06725299999999999 0.610197 -0.032037 
-0.067042 0.612213 -0.030907 
-0.066424 0.612444 -0.026526 
-0.066774 0.615714 -0.026985 
-0.067675 0.61372 -0.02936 
-0.067899 0.612001 -0.029128 
-0.065903 0.612652 -0.022586 
-0.066723 0.610225 -0.026862 
-0.067713 0.617716 -0.027195 
-0.068205 0.6157820000000001 -0.02972 
-0.06539399999999999 0.618367 -0.02931 
-0.06612800000000001 0.61839 -0.027483 
-0.067092 0.621405 -0.029927 
-0.06897399999999999 0.620216 -0.029228 
-0.06927899999999999 0.623723 -0.03487 
-0.070883 0.621136 -0.033984 
-0.070339 0.621553 -0.040018 
-0.072341 0.619733 -0.039229 
-0.059706 0.581765 -0.027796 
-0.058778 0.583894 -0.035113 
-0.070558 0.618048 -0.042453 
-0.072948 0.61673 -0.042307 
-0.070783 0.611353 -0.047068 
-0.072953 0.610911 -0.046095 
-0.069851 0.604135 -0.051033 
-0.071905 0.603888 -0.050185 
-0.068703 0.59799 -0.052876 
-0.07127 0.597993 -0.051341 
-0.067068 0.586638 -0.052838 
-0.069119 0.588481 -0.050361 
-0.07087499999999999 0.618161 -0.038732 
-0.069841 0.619523 -0.034948 
-0.063414 0.620485 -0.038466 
-0.068398 0.618471 -0.031054 
-0.06188 0.608168 -0.0418 
-0.061503 0.606131 -0.041664 
-0.06367 0.606457 -0.038749 
-0.062014 0.607829 -0.039527 
-0.061843 0.599758 -0.032805 
-0.059916 0.593872 -0.034824 
-0.060519 0.5924779999999999 -0.031594 
-0.057653 0.589404 -0.036931 
-0.059526 0.595291 -0.03542 
-0.059111 0.591968 -0.0366 
-0.060059 0.599441 -0.034641 
-0.059182 0.58988 -0.038036 
-0.058871 0.5865010000000001 -0.038591 
-0.058937 0.591666 -0.038156 
-0.059153 0.593203 -0.036891 
-0.058818 0.595002 -0.03711 
-0.059346 0.598608 -0.038634 
-0.061462 0.5914160000000001 -0.023761 
-0.056824 0.587581 -0.047618 
-0.058085 0.5969449999999999 -0.048293 
-0.06728099999999999 0.581653 -0.048047 
-0.065029 0.576206 -0.049938 
-0.063233 0.566707 -0.037396 
-0.064245 0.570181 -0.043285 
-0.061285 0.616713 -0.041419 
-0.060673 0.611191 -0.044482 
-0.055206 0.578553 -0.04328 
-0.059424 0.604819 -0.047788 
-0.067201 0.59163 -0.049095 
-0.065237 0.586737 -0.046877 
-0.069593 0.598265 -0.050059 
-0.061152 0.582198 -0.038478 
-0.06370000000000001 0.583127 -0.042924 
-0.06535100000000001 0.577412 -0.043175 
-0.06320099999999999 0.575246 -0.037917 
-0.063246 0.590316 -0.044591 
-0.06604599999999999 0.594101 -0.046453 
-0.061462 0.593184 -0.043818 
-0.063926 0.597457 -0.044686 
-0.060035 0.5902539999999999 -0.04079 
-0.061175 0.587427 -0.041665 
-0.058585 0.596037 -0.043133 
-0.060679 0.600576 -0.044185 
-0.058349 0.592749 -0.040494 
-0.066215 0.600513 -0.044896 
-0.063584 0.603932 -0.043728 
-0.066121 0.606228 -0.041465 
-0.067735 0.604154 -0.044159 
-0.06833500000000001 0.598684 -0.047242 
-0.06986199999999999 0.603407 -0.046877 
-0.07006 0.603515 -0.049151 
-0.070913 0.6083229999999999 -0.04477 
-0.070948 0.6100100000000001 -0.046245 
-0.06868200000000001 0.607907 -0.043056 
-0.067527 0.608276 -0.040578 
-0.071312 0.615554 -0.041654 
-0.070898 0.612312 -0.041378 
-0.07013 0.615202 -0.03805 
-0.06923 0.6105429999999999 -0.040593 
-0.06904100000000001 0.612834 -0.037699 
-0.068203 0.609818 -0.039702 
-0.067693 0.610862 -0.03766 
-0.067022 0.6158400000000001 -0.030652 
-0.066678 0.614038 -0.030264 
-0.067759 0.61676 -0.032598 
-0.06708799999999999 0.614711 -0.033435 
-0.066854 0.615051 -0.032165 
-0.066313 0.613986 -0.032211 
-0.06689299999999999 0.613005 -0.034136 
-0.065249 0.611806 -0.035826 
-0.021098 0.460347 -0.024055 
-0.010249 0.457509 -0.023595 
-0.009564 0.467158 -0.020829 
-0.019962 0.470133 -0.02208 
-0.068151 0.614137 -0.035168 
-0.06725100000000001 0.611793 -0.035592 
-0.06889000000000001 0.616622 -0.034894 
-0.06532399999999999 0.60938 -0.039035 
-0.06622699999999999 0.610694 -0.0373 
-0.06686599999999999 0.609522 -0.038528 
-0.066068 0.608556 -0.039631 
-0.064404 0.604038 -0.031662 
-0.061604 0.603199 -0.035992 
-0.06075 0.60148 -0.04019 
-0.049189 0.456716 -0.043922 
-0.044456 0.46556 -0.045404 
-0.055611 0.473381 -0.060471 
-0.06076 0.466923 -0.058882 
-0.059988 0.439263 -0.029466 
-0.07671600000000001 0.452161 -0.04405 
-0.075639 0.433333 -0.027352 
-0.062155 0.423955 -0.018088 
-0.075587 0.417034 -0.011184 
-0.064632 0.409193 -0.004843 
-0.07753400000000001 0.371833 0.027185 
-0.064917 0.368859 0.032323 
-0.064544 0.382375 0.02114 
-0.076043 0.386254 0.015364 
-0.104056 0.29323 0.053519 
-0.099594 0.273039 0.051368 
-0.08563999999999999 0.274888 0.056184 
-0.091687 0.293377 0.057313 
-0.118453 0.421931 -0.019492 
-0.116115 0.44693 -0.025158 
-0.122453 0.446394 -0.023287 
-0.124118 0.416967 -0.022771 
-0.083657 0.482535 -0.099372 
-0.08280899999999999 0.470304 -0.07327 
-0.074304 0.473737 -0.07541200000000001 
-0.076504 0.482281 -0.099772 
-0.145573 0.311688 0.004674 
-0.144248 0.297098 0.013815 
-0.137646 0.308244 0.021149 
-0.13842 0.32146 0.013405 
-0.1217 0.20423 0.009415 
-0.124597 0.173113 0.009148 
-0.110937 0.171097 0.023258 
-0.106441 0.200683 0.021081 
-0.153525 0.238646 -0.045167 
-0.155815 0.23964 -0.067191 
-0.15323 0.217589 -0.066443 
-0.152652 0.213453 -0.046353 
-0.101503 0.374905 0.012144 
-0.090201 0.373456 0.019939 
-0.089214 0.38834 0.007621 
-0.100777 0.391436 -0.000308 
-0.227412 0.584025 0.001932 
-0.22978 0.57281 0.011075 
-0.21489 0.555518 -0.00046 
-0.213289 0.5676639999999999 -0.009556 
-0.150848 0.08612 -0.064997 
-0.143642 0.095821 -0.078986 
-0.156381 0.07864699999999999 -0.08458300000000001 
-0.1658 0.062366 -0.075609 
-0.142046 0.523723 -0.069565 
-0.134387 0.51983 -0.07389900000000001 
-0.142057 0.520046 -0.098075 
-0.149903 0.528478 -0.092942 
-0.128286 0.365963 -0.01103 
-0.123685 0.370271 -0.006586 
-0.120783 0.393957 -0.015939 
-0.126069 0.387979 -0.019312 
-0.160195 0.276348 -0.07255499999999999 
-0.158427 0.27687 -0.054663 
-0.159823 0.294155 -0.058949 
-0.161929 0.293818 -0.07605199999999999 
-0.156274 0.257401 -0.050198 
-0.157575 0.256329 -0.069295 
-0.117432 0.375537 -0.003063 
-0.110304 0.375368 0.004199 
-0.109712 0.393842 -0.008777 
-0.115121 0.39766 -0.013145 
-0.09614 0.252885 0.045024 
-0.08006099999999999 0.257921 0.052036 
-0.157082 0.06487800000000001 -0.044312 
-0.146133 0.061934 -0.021037 
-0.141871 0.080287 -0.020765 
-0.14998 0.08208500000000001 -0.043667 
-0.09100900000000001 0.223424 0.027703 
-0.091193 0.238605 0.032732 
-0.104861 0.23818 0.024991 
-0.105432 0.223611 0.019651 
-0.130178 0.058136 -0.003648 
-0.11068 0.054628 0.007629 
-0.109541 0.07534200000000001 0.009825 
-0.127843 0.077835 -0.002477 
-0.075485 0.401872 0.003513 
-0.065345 0.395139 0.008714 
-0.123669 0.293989 0.03983 
-0.121845 0.272246 0.03779 
-0.111286 0.272044 0.046094 
-0.114654 0.293273 0.047644 
-0.136214 0.388184 -0.035885 
-0.130268 0.405055 -0.027205 
-0.132917 0.441302 -0.026232 
-0.140671 0.414531 -0.037773 
-0.16667 0.063024 -0.08856899999999999 
-0.168011 0.055345 -0.06768399999999999 
-0.132399 0.039306 -0.003921 
-0.111448 0.034348 0.005917 
-0.175162 0.422327 -0.061272 
-0.172095 0.411681 -0.063795 
-0.172033 0.414102 -0.064345 
-0.173115 0.423758 -0.062748 
-0.056723 0.291082 0.062962 
-0.068413 0.302607 0.061809 
-0.074728 0.285148 0.060417 
-0.06576799999999999 0.270003 0.058796 
-0.120486 0.253074 0.029607 
-0.117608 0.241153 0.0175 
-0.109418 0.25199 0.037719 
-0.044023 0.276312 0.062092 
-0.055161 0.25101 0.050355 
-0.053406 0.387569 0.012297 
-0.053112 0.375512 0.024666 
-0.052025 0.401545 0.00116 
-0.03734 0.393644 0.005193 
-0.03367 0.409601 -0.003593 
-0.047984 0.416378 -0.009449000000000001 
-0.029457 0.426667 -0.008584 
-0.043524 0.432551 -0.01668 
-0.034984 0.447243 -0.033042 
-0.032558 0.456028 -0.034108 
-0.13069 0.378946 -0.023644 
-0.13399 0.358104 -0.015801 
-0.149404 0.045144 -0.020642 
-0.113617 0.399063 -0.163369 
-0.117289 0.383102 -0.161775 
-0.130625 0.391665 -0.151263 
-0.127158 0.40678 -0.152817 
-0.091353 0.481349 -0.103299 
-0.091867 0.468574 -0.08024100000000001 
-0.179401 0.398557 -0.101203 
-0.174488 0.385828 -0.110275 
-0.175422 0.380866 -0.105105 
-0.179574 0.393958 -0.096986 
-0.186487 0.424055 -0.071061 
-0.195377 0.436459 -0.067977 
-0.201142 0.438977 -0.071395 
-0.19217 0.427522 -0.076611 
-0.147568 0.086468 -0.102606 
-0.133273 0.104029 -0.093643 
-0.136139 0.250441 -0.123064 
-0.14631 0.244634 -0.106415 
-0.150793 0.264232 -0.107466 
-0.142892 0.271772 -0.120095 
-0.020308 0.365956 -0.156709 
-0.021322 0.352377 -0.158096 
-0.039309 0.356342 -0.161043 
-0.038644 0.369901 -0.160197 
-0.0767 0.398208 -0.170547 
-0.073768 0.413636 -0.171594 
-0.05339 0.404355 -0.16417 
-0.05651 0.390838 -0.164952 
-0.098635 0.389674 -0.169666 
-0.101262 0.375142 -0.168486 
-0.160794 0.296905 -0.092053 
-0.159092 0.277865 -0.091352 
-0.167618 0.336417 -0.08572100000000001 
-0.163556 0.335464 -0.074989 
-0.166071 0.355557 -0.073069 
-0.170728 0.356705 -0.08155999999999999 
-0.07049999999999999 0.48443 -0.099407 
-0.068551 0.487153 -0.120621 
-0.07869900000000001 0.486297 -0.122285 
-0.042231 0.452287 -0.144821 
-0.042686 0.445369 -0.148868 
-0.053937 0.453632 -0.147543 
-0.050419 0.459731 -0.143789 
-0.049365 0.294331 -0.159298 
-0.028002 0.291452 -0.156997 
-0.029681 0.268737 -0.155845 
-0.053524 0.270453 -0.157555 
-0.174912 0.375386 -0.08444 
-0.177153 0.392209 -0.078804 
-0.178164 0.391218 -0.08613 
-0.175605 0.375945 -0.091694 
-0.171992 0.357507 -0.09833 
-0.169106 0.336806 -0.101507 
-0.168757 0.337578 -0.09408 
-0.172088 0.35772 -0.089034 
-0.149079 0.288908 -0.11666 
-0.1549 0.282823 -0.105935 
-0.1577 0.298993 -0.104138 
-0.155275 0.302978 -0.113271 
-0.029477 0.200354 -0.143389 
-0.049186 0.198862 -0.143156 
-0.053609 0.222522 -0.149412 
-0.031006 0.224077 -0.149984 
-0.172754 0.439626 -0.056134 
-0.164812 0.449157 -0.048394 
-0.173865 0.459949 -0.044439 
-0.182029 0.452687 -0.051055 
-0.215376 0.452808 -0.077934 
-0.224119 0.463313 -0.074585 
-0.224617 0.466471 -0.078584 
-0.215707 0.455051 -0.08247400000000001 
-0.203603 0.468213 -0.038612 
-0.195475 0.47153 -0.037585 
-0.211167 0.490755 -0.021635 
-0.219602 0.485875 -0.022847 
-0.103284 0.480601 -0.131194 
-0.098511 0.482193 -0.107226 
-0.09600499999999999 0.481805 -0.127626 
-0.195829 0.448242 -0.053113 
-0.213524 0.465682 -0.040348 
-0.219459 0.465909 -0.04254 
-0.20275 0.449138 -0.055553 
-0.229606 0.591867 -0.011426 
-0.216823 0.575805 -0.023081 
-0.242058 0.502107 -0.009767 
-0.250493 0.500474 -0.0134 
-0.231428 0.48332 -0.025589 
-0.225479 0.484077 -0.02341 
-0.130543 0.228292 -0.121561 
-0.141332 0.224414 -0.10538 
-0.116065 0.09679500000000001 -0.126436 
-0.133057 0.09275799999999999 -0.116592 
-0.119896 0.111349 -0.105658 
-0.105815 0.116857 -0.11375 
-0.158988 0.070241 -0.107995 
-0.127914 0.077885 -0.139527 
-0.145581 0.074863 -0.125887 
-0.051713 0.492166 -0.111597 
-0.043029 0.489372 -0.121167 
-0.049751 0.483382 -0.127673 
-0.059059 0.487905 -0.117633 
-0.177601 -0.034987 -0.128692 
-0.185716 -0.06083 -0.141463 
-0.194936 -0.065895 -0.112559 
-0.183123 -0.04092 -0.102642 
-0.027834 0.46368 -0.135744 
-0.040363 0.475138 -0.132619 
-0.033034 0.481966 -0.126931 
-0.022534 0.47281 -0.128044 
-0.180158 -0.017513 -0.097575 
-0.173253 -0.009932 -0.121521 
-0.05635 0.49098 -0.09082 
-0.06425400000000001 0.486522 -0.096306 
-0.061369 0.480978 -0.076949 
-0.055459 0.486081 -0.07294100000000001 
-0.049396 0.479728 -0.056911 
-0.195697 -0.073601 -0.086003 
-0.18495 -0.051249 -0.08104600000000001 
-0.037891 0.494953 -0.112846 
-0.028047 0.488271 -0.119919 
-0.018508 0.482434 -0.121207 
-0.007901 0.479057 -0.122458 
-0.166277 0.056066 -0.111148 
-0.173243 0.050246 -0.089772 
-0.137518 -0.155496 -0.22856 
-0.109397 -0.157316 -0.235555 
-0.109764 -0.175747 -0.225239 
-0.144646 -0.174804 -0.218173 
-0.040663 -0.145574 -0.218602 
-0.038371 -0.16192 -0.206352 
-0.07399500000000001 -0.173301 -0.220834 
-0.077594 -0.157278 -0.233465 
-0.038648 -0.032476 -0.225881 
-0.06536400000000001 -0.027906 -0.227075 
-0.064666 -0.009506000000000001 -0.214334 
-0.037984 -0.013644 -0.21565 
-0.134377 0.062393 -0.145865 
-0.152672 0.060058 -0.130502 
-0.172218 0.04286 -0.06576 
-0.20309 -0.205791 -0.089657 
-0.20625 -0.199442 -0.130032 
-0.202334 -0.2316 -0.133928 
-0.200983 -0.234911 -0.097912 
-0.169485 -0.224327 -0.192722 
-0.172931 -0.198621 -0.195598 
-0.140976 -0.198345 -0.213238 
-0.137108 -0.222224 -0.208657 
-0.091497 0.029797 0.014239 
-0.112309 0.014109 0.002527 
-0.091989 0.008895999999999999 0.009983000000000001 
-0.042662 0.019329 0.030521 
-0.059406 0.022574 0.028787 
-0.057533 0.000947 0.022462 
-0.039669 -0.001791 0.024279 
-0.052874 -0.109995 -0.01022 
-0.038823 -0.108966 -0.0075 
-0.039811 -0.089824 -0.002336 
-0.055952 -0.089592 -0.004843 
-0.180216 -0.06188 -0.058381 
-0.167891 -0.07302500000000001 -0.039066 
-0.163279 -0.050951 -0.035865 
-0.175163 -0.039086 -0.053937 
-0.039599 -0.170874 -0.187762 
-0.071696 -0.184364 -0.204684 
-0.189641 -0.241878 -0.060736 
-0.188631 -0.208676 -0.053594 
-0.16159 -0.249654 -0.032896 
-0.127797 -0.251327 -0.02163 
-0.128979 -0.221569 -0.017193 
-0.162456 -0.218462 -0.027997 
-0.040338 -0.164864 -0.061206 
-0.052433 -0.152717 -0.044535 
-0.055083 -0.157348 -0.047881 
-0.040781 -0.168077 -0.06646199999999999 
-0.038146 -0.110542 -0.232948 
-0.040632 -0.127765 -0.227286 
-0.072934 -0.134582 -0.237113 
-0.070089 -0.113328 -0.239374 
-0.107188 0.080264 -0.145316 
-0.114101 0.063461 -0.155469 
-0.087142 0.080859 -0.148069 
-0.09837700000000001 0.09965499999999999 -0.131282 
-0.080387 0.102379 -0.133701 
-0.097911 0.239474 -0.143064 
-0.115534 0.233601 -0.134346 
-0.12107 0.255501 -0.136126 
-0.102675 0.263682 -0.144942 
-0.05989 0.363467 -0.163825 
-0.05892 0.377084 -0.164815 
-0.100215 -0.214214 -0.211637 
-0.06169 -0.201212 -0.193927 
-0.073197 -0.237586 -0.199359 
-0.107037 -0.242595 -0.208276 
-0.164263 -0.25041 -0.193282 
-0.186627 -0.254575 -0.171011 
-0.192676 -0.226744 -0.168105 
-0.197 -0.260638 -0.13968 
-0.197341 -0.266031 -0.101108 
-0.159417 -0.280226 -0.038223 
-0.125811 -0.281114 -0.028487 
-0.045563 -0.236338 -0.06797400000000001 
-0.06535199999999999 -0.242025 -0.047079 
-0.062967 -0.265324 -0.056142 
-0.046055 -0.258756 -0.078968 
-0.089465 -0.115194 -0.025222 
-0.120851 -0.09769899999999999 -0.023207 
-0.125456 -0.12045 -0.018296 
-0.09564 -0.132729 -0.021532 
-0.044871 0.041288 0.033557 
-0.058989 0.044977 0.031986 
-0.074297 0.025815 0.022901 
-0.07334400000000001 0.047607 0.026055 
-0.09073199999999999 0.051087 0.017046 
-0.056998 0.142173 0.047054 
-0.074306 0.141913 0.039395 
-0.071885 0.117087 0.03611 
-0.055152 0.116298 0.042466 
-0.057268 0.171176 0.046859 
-0.076111 0.171114 0.040617 
-0.05572 0.229767 0.037829 
-0.074388 0.241705 0.040043 
-0.07536 0.225727 0.033321 
-0.039266 0.380058 0.014778 
-0.04003 0.367795 0.027035 
-0.190382 -0.085102 -0.061818 
-0.034774 -0.21133 -0.166781 
-0.027279 -0.216059 -0.137074 
-0.031334 -0.242356 -0.151187 
-0.045522 -0.239299 -0.178415 
-0.18046 -0.027952 -0.075374 
-0.161172 0.050282 -0.043184 
-0.164559 0.035636 -0.042201 
-0.1455 0.243642 -0.019805 
-0.145504 0.212629 -0.024108 
-0.080639 0.311099 0.059209 
-0.08255700000000001 0.297621 0.059648 
-0.196891 -0.196036 -0.167923 
-0.155868 -0.310286 -0.044624 
-0.151087 -0.339241 -0.051272 
-0.119063 -0.339371 -0.046423 
-0.122754 -0.310725 -0.037469 
-0.037105 -0.278727 -0.115127 
-0.046124 -0.28426 -0.09092799999999999 
-0.047654 -0.310689 -0.103713 
-0.040885 -0.305987 -0.126786 
-0.045238 -0.335455 -0.135447 
-0.051003 -0.341252 -0.109745 
-0.05199 -0.369858 -0.122714 
-0.047661 -0.362952 -0.144647 
-0.185692 -0.274794 -0.06471399999999999 
-0.188475 -0.327192 -0.105908 
-0.17664 -0.33437 -0.074521 
-0.181413 -0.305322 -0.069353 
-0.193199 -0.298175 -0.10257 
-0.136998 -0.248697 -0.204606 
-0.034677 -0.252728 -0.10278 
-0.033345 -0.231065 -0.090528 
-0.048096 -0.300065 -0.169691 
-0.062857 -0.298442 -0.191368 
-0.055467 -0.268958 -0.184598 
-0.039938 -0.270837 -0.16052 
-0.165426 -0.307003 -0.190233 
-0.183055 -0.312764 -0.168002 
-0.185611 -0.28457 -0.167602 
-0.165787 -0.278726 -0.1907 
-0.193038 -0.291231 -0.137044 
-0.189382 -0.319543 -0.138578 
-0.179615 -0.383096 -0.112605 
-0.165664 -0.389863 -0.086047 
-0.171123 -0.36252 -0.080119 
-0.184087 -0.355728 -0.109437 
-0.184611 -0.375359 -0.142425 
-0.186739 -0.347401 -0.140822 
-0.181474 -0.340171 -0.168792 
-0.180119 -0.36768 -0.168677 
-0.164181 -0.360942 -0.189199 
-0.164625 -0.33423 -0.189831 
-0.142267 -0.329773 -0.205164 
-0.143962 -0.35607 -0.204182 
-0.117685 -0.32688 -0.211678 
-0.092075 -0.326046 -0.207675 
-0.09847599999999999 -0.352595 -0.206352 
-0.122008 -0.353237 -0.209716 
-0.061405 -0.355453 -0.182575 
-0.077463 -0.353604 -0.197985 
-0.07013800000000001 -0.326752 -0.195589 
-0.055624 -0.328148 -0.176619 
-0.084554 -0.457699 -0.209852 
-0.10331 -0.454972 -0.208728 
-0.095971 -0.429189 -0.207466 
-0.077545 -0.432009 -0.204788 
-0.121402 -0.453469 -0.213738 
-0.139374 -0.453938 -0.214821 
-0.13347 -0.428913 -0.209827 
-0.115145 -0.428411 -0.206947 
-0.163172 -0.436081 -0.187793 
-0.150014 -0.430836 -0.203411 
-0.155766 -0.456405 -0.206273 
-0.168304 -0.46119 -0.190176 
-0.178225 -0.466982 -0.170577 
-0.177196 -0.443312 -0.169809 
-0.173482 -0.472367 -0.147861 
-0.176834 -0.450969 -0.147129 
-0.161863 -0.456656 -0.125345 
-0.157984 -0.478536 -0.126855 
-0.05159 -0.445192 -0.159622 
-0.055899 -0.471086 -0.169316 
-0.059816 -0.465826 -0.190357 
-0.051012 -0.441279 -0.178873 
-0.075334 -0.458512 -0.114956 
-0.089588 -0.465271 -0.09451900000000001 
-0.089631 -0.486286 -0.108643 
-0.078044 -0.480867 -0.131414 
-0.181329 -0.401614 -0.144196 
-0.175183 -0.409455 -0.115199 
-0.162901 -0.38654 -0.187948 
-0.177824 -0.394019 -0.168457 
-0.066611 -0.381447 -0.189021 
-0.083847 -0.379067 -0.200293 
-0.051991 -0.396025 -0.134215 
-0.048907 -0.390002 -0.154873 
-0.122633 -0.444962 -0.082471 
-0.131618 -0.420111 -0.077025 
-0.159952 -0.416766 -0.090798 
-0.150229 -0.44143 -0.096207 
-0.179226 -0.426327 -0.145971 
-0.176411 -0.419167 -0.168999 
-0.162209 -0.411369 -0.187176 
-0.147577 -0.406783 -0.202145 
-0.129474 -0.404507 -0.207705 
-0.109649 -0.403818 -0.205919 
-0.089822 -0.404263 -0.204205 
-0.071365 -0.40658 -0.197087 
-0.04907 -0.415662 -0.166077 
-0.051979 -0.421571 -0.146647 
-0.111633 -0.48797 -0.09883 
-0.110482 -0.469874 -0.088949 
-0.14234 -0.463241 -0.102729 
-0.140068 -0.484022 -0.106137 
-0.113088 -0.50368 -0.111241 
-0.092427 -0.501257 -0.120784 
-0.128509 -0.481153 -0.219451 
-0.146211 -0.481293 -0.217317 
-0.162877 -0.482609 -0.207937 
-0.179859 -0.49121 -0.171582 
-0.170857 -0.496922 -0.147386 
-0.155561 -0.502229 -0.126567 
-0.138123 -0.5010289999999999 -0.111376 
-0.07553 -0.5182909999999999 -0.192905 
-0.067861 -0.491141 -0.191009 
-0.065057 -0.495608 -0.17331 
-0.072503 -0.519451 -0.175732 
-0.09897 -0.513115 -0.216524 
-0.115647 -0.510834 -0.225293 
-0.110829 -0.482748 -0.211685 
-0.09328 -0.48479 -0.208452 
-0.134786 -0.509368 -0.228655 
-0.153898 -0.509485 -0.222708 
-0.171627 -0.509615 -0.212764 
-0.182738 -0.516862 -0.171113 
-0.177087 -0.485391 -0.192655 
-0.182787 -0.511871 -0.195674 
-0.172417 -0.52291 -0.142399 
-0.153429 -0.550762 -0.125648 
-0.150525 -0.526045 -0.12513 
-0.176322 -0.549239 -0.141002 
-0.134045 -0.643186 -0.136969 
-0.158572 -0.639641 -0.135468 
-0.156125 -0.669915 -0.139909 
-0.135669 -0.67431 -0.141531 
-0.078295 -0.546844 -0.179524 
-0.080984 -0.546343 -0.199262 
-0.102993 -0.54366 -0.227156 
-0.122493 -0.540875 -0.235176 
-0.191783 -0.57303 -0.172443 
-0.18751 -0.544529 -0.167484 
-0.187824 -0.540821 -0.194008 
-0.191153 -0.570721 -0.198636 
-0.078259 -0.6348200000000001 -0.190831 
-0.080953 -0.637211 -0.210541 
-0.080723 -0.606173 -0.208825 
-0.078303 -0.606015 -0.186955 
-0.12171 -0.573125 -0.242295 
-0.101996 -0.575103 -0.232944 
-0.103385 -0.604865 -0.237852 
-0.122492 -0.6055430000000001 -0.246649 
-0.191299 -0.6375960000000001 -0.17593 
-0.192691 -0.604564 -0.174085 
-0.193079 -0.603264 -0.200444 
-0.192377 -0.637672 -0.202086 
-0.157277 -0.578244 -0.128159 
-0.180338 -0.575846 -0.144922 
-0.182232 -0.604148 -0.148917 
-0.161188 -0.608459 -0.132549 
-0.129193 -0.5798140000000001 -0.129407 
-0.133301 -0.61104 -0.131975 
-0.093861 -0.705664 -0.207732 
-0.086218 -0.66958 -0.210834 
-0.08353099999999999 -0.6699889999999999 -0.191079 
-0.093098 -0.707196 -0.189521 
-0.125275 -0.637641 -0.247613 
-0.105325 -0.637343 -0.239254 
-0.108701 -0.6717379999999999 -0.236307 
-0.126922 -0.6728 -0.244103 
-0.183798 -0.711303 -0.180719 
-0.188286 -0.672864 -0.17864 
-0.188922 -0.674199 -0.203329 
-0.183571 -0.711427 -0.20457 
-0.157284 -0.706637 -0.146091 
-0.177514 -0.669129 -0.152612 
-0.1759 -0.707496 -0.158277 
-0.154481 -0.744595 -0.148039 
-0.134142 -0.746057 -0.149524 
-0.135378 -0.708448 -0.146489 
-0.100291 -0.739945 -0.187817 
-0.10014 -0.740141 -0.205352 
-0.111809 -0.742079 -0.225621 
-0.127344 -0.739178 -0.235213 
-0.128082 -0.706156 -0.239129 
-0.111984 -0.707826 -0.230972 
-0.165309 -0.713519 -0.232041 
-0.147338 -0.709017 -0.240017 
-0.146644 -0.742049 -0.235229 
-0.163012 -0.745198 -0.225768 
-0.176063 -0.744001 -0.204163 
-0.177705 -0.71179 -0.219821 
-0.171322 -0.744189 -0.216247 
-0.180115 -0.741905 -0.181908 
-0.172851 -0.743079 -0.159787 
-0.029574 -0.182529 -0.130185 
-0.029475 -0.188498 -0.107278 
-0.027752 -0.199284 -0.120948 
-0.030081 -0.189615 -0.14602 
-0.06494800000000001 -0.322013 -0.076691 
-0.065112 -0.291984 -0.064938 
-0.06417200000000001 -0.37857 -0.09808 
-0.06734900000000001 -0.353634 -0.08358500000000001 
-0.063029 -0.403543 -0.111627 
-0.062368 -0.429039 -0.124001 
-0.06232 -0.453108 -0.138706 
-0.065522 -0.477407 -0.149872 
-0.07282 -0.498625 -0.154525 
-0.078803 -0.523675 -0.156817 
-0.08774700000000001 -0.574327 -0.162201 
-0.07988099999999999 -0.576068 -0.184335 
-0.084799 -0.548486 -0.158149 
-0.08794100000000001 -0.635422 -0.16748 
-0.088883 -0.603581 -0.164561 
-0.094928 -0.672298 -0.169341 
-0.102414 -0.708357 -0.171099 
-0.108189 -0.741285 -0.170838 
-0.096363 -0.194436 -0.020824 
-0.067638 -0.194701 -0.035385 
-0.069229 -0.174558 -0.030772 
-0.097306 -0.171491 -0.018998 
-0.034367 -0.172183 -0.079841 
-0.038004 -0.169442 -0.071383 
-0.037901 -0.171146 -0.075958 
-0.033926 -0.173616 -0.085062 
-0.169582 -0.435304 -0.119113 
-0.145497 -0.381626 -0.2027 
-0.125617 -0.379183 -0.208412 
-0.104218 -0.378399 -0.205193 
-0.075554 -0.436459 -0.101002 
-0.079234 -0.412292 -0.089189 
-0.103134 -0.418306 -0.07677299999999999 
-0.096099 -0.442401 -0.084883 
-0.122994 -0.559661 -0.129008 
-0.105031 -0.578816 -0.143249 
-0.099901 -0.553417 -0.139869 
-0.1203 -0.537479 -0.125555 
-0.164627 -0.538324 -0.22779 
-0.180173 -0.5383289999999999 -0.214679 
-0.145933 -0.57018 -0.242998 
-0.167939 -0.568917 -0.236008 
-0.14352 -0.539413 -0.23466 
-0.08770699999999999 -0.364029 -0.064995 
-0.114424 -0.367123 -0.055856 
-0.108785 -0.39335 -0.066718 
-0.08275200000000001 -0.387763 -0.077004 
-0.114429 0.130851 -0.098982 
-0.103457 0.137552 -0.108774 
-0.142019 0.269541 0.013557 
-0.143817 0.256711 -0.002003 
-0.131427 0.245829 0.009397000000000001 
-0.130738 0.25794 0.022831 
-0.149513 0.270961 -0.011357 
-0.148447 0.283637 0.004274 
-0.150903 0.298334 -0.005408 
-0.153221 0.287631 -0.019621 
-0.142053 0.387548 -0.047803 
-0.148237 0.408285 -0.050486 
-0.056425 0.203668 0.042342 
-0.034953 0.202481 0.044867 
-0.034297 0.225533 0.041546 
-0.073727 0.004421 0.01735 
-0.095042 -0.085159 -0.0135 
-0.068393 -0.11324 -0.015647 
-0.07365099999999999 -0.089174 -0.008933999999999999 
-0.035798 -0.158792 -0.043648 
-0.06995 0.19705 -0.138837 
-0.074347 0.219944 -0.145103 
-0.036918 0.383619 -0.159171 
-0.01863 0.378449 -0.155327 
-0.032761 0.40886 -0.154581 
-0.031873 0.419645 -0.152367 
-0.015266 0.413742 -0.148641 
-0.01625 0.403355 -0.150433 
-0.009334 0.468469 -0.12761 
-0.012435 0.457622 -0.134658 
-0.030365 -0.176367 -0.099202 
-0.034018 -0.176206 -0.089866 
-0.030261 -0.178047 -0.106866 
-0.046122 -0.214738 -0.059315 
-0.033358 -0.21157 -0.079503 
-0.035779 -0.194793 -0.072128 
-0.047648 -0.194944 -0.052888 
-0.204001 -0.173855 -0.082631 
-0.210054 -0.165795 -0.122094 
-0.106078 -0.193155 -0.217084 
-0.283552 0.538215 0.006892 
-0.292408 0.540178 -0.003265 
-0.276995 0.519962 -0.012689 
-0.267942 0.5184299999999999 -0.003328 
-0.074311 0.29957 -0.157778 
-0.082007 0.275505 -0.152457 
-0.067731 0.477509 -0.077931 
-0.111816 0.492655 -0.110754 
-0.107663 0.488667 -0.084157 
-0.102433 0.484039 -0.08488 
-0.104958 0.487943 -0.110244 
-0.137734 0.430391 -0.148507 
-0.132976 0.447041 -0.148488 
-0.120644 0.440666 -0.153505 
-0.124455 0.423273 -0.154783 
-0.038242 -0.051394 -0.231303 
-0.06537999999999999 -0.047478 -0.235634 
-0.043125 0.128343 -0.127066 
-0.060631 0.126327 -0.125946 
-0.061919 0.149811 -0.127703 
-0.043598 0.151568 -0.131216 
-0.103629 0.29485 -0.148725 
-0.117466 0.283459 -0.140793 
-0.040451 0.305787 0.062336 
-0.038936 0.326462 0.057556 
-0.052074 0.331568 0.054398 
-0.053754 0.312994 0.060902 
-0.262771 0.5047739999999999 -0.04873 
-0.245493 0.48234 -0.052564 
-0.247242 0.484263 -0.040083 
-0.267873 0.505467 -0.034672 
-0.200497 -0.157059 -0.165067 
-0.175408 -0.16973 -0.199586 
-0.138383 0.169908 -0.085573 
-0.128999 0.176474 -0.103298 
-0.119601 0.152432 -0.100462 
-0.129649 0.144728 -0.085386 
-0.152775 0.241231 -0.087301 
-0.148967 0.220254 -0.086052 
-0.155837 0.260342 -0.089071 
-0.179636 0.404058 -0.076123 
-0.177916 0.411567 -0.06694899999999999 
-0.181232 0.4233 -0.06521299999999999 
-0.06657 -0.217437 -0.040678 
-0.07407999999999999 -0.146383 -0.031723 
-0.072436 -0.136099 -0.036013 
-0.031334 -0.174412 -0.092139 
-0.048956 0.49335 -0.068554 
-0.044629 0.487079 -0.053022 
-0.191871 0.447671 -0.05264 
-0.209092 0.465902 -0.038731 
-0.168611 0.377062 -0.069816 
-0.162647 0.378285 -0.063863 
-0.165933 0.398426 -0.06372999999999999 
-0.169851 0.397978 -0.06636 
-0.174475 0.394892 -0.07124900000000001 
-0.173228 0.376803 -0.075957 
-0.113193 0.421351 -0.018465 
-0.109385 0.416469 -0.018161 
-0.106401 0.43818 -0.026815 
-0.11165 0.444485 -0.0262 
-0.100743 0.409287 -0.013831 
-0.088453 0.404418 -0.005788 
-0.088668 0.421323 -0.01962 
-0.100213 0.429549 -0.025018 
-0.067303 0.460122 -0.054371 
-0.05541 0.448894 -0.038836 
-0.039953 0.441733 -0.026206 
-0.024463 0.436874 -0.015784 
-0.01382 0.447437 -0.145148 
-0.012626 0.435102 -0.151457 
-0.030194 0.439391 -0.150271 
-0.032621 0.452173 -0.142774 
-0.040591 0.472487 -0.042968 
-0.03172 0.465333 -0.03141 
-0.021147 0.450361 -0.026079 
-0.238701 0.597361 -0.023371 
-0.225615 0.580689 -0.035675 
-0.044915 0.499861 -0.101494 
-0.048873 0.498024 -0.08515200000000001 
-0.237951 0.580298 -0.045496 
-0.251048 0.596248 -0.035334 
-0.097538 0.461969 -0.058786 
-0.097279 0.473613 -0.08423899999999999 
-0.102796 0.471068 -0.061491 
-0.038771 0.480893 -0.039386 
-0.031031 0.474378 -0.028178 
-0.210317 -0.133885 -0.109303 
-0.20159 -0.142555 -0.07346999999999999 
-0.142511 0.102182 -0.03974 
-0.141203 0.107336 -0.057506 
-0.036277 0.140558 0.04811 
-0.035848 0.113777 0.043458 
-0.008349000000000001 0.476683 -0.018782 
-0.055703 0.06829300000000001 0.034354 
-0.037989 0.063648 0.035146 
-0.036221 0.088183 0.037988 
-0.054411 0.09162099999999999 0.03731 
-0.032955 0.040835 0.030947 
-0.032605 0.027873 0.030021 
-0.051597 -0.126142 -0.017923 
-0.039055 -0.125262 -0.015569 
-0.171004 0.5261 -0.041194 
-0.15832 0.517261 -0.046019 
-0.159066 0.532687 -0.060813 
-0.173856 0.539555 -0.05385 
-0.071381 0.070552 0.028864 
-0.090022 0.07303 0.019369 
-0.137434 0.366133 -0.030637 
-0.141927 0.362903 -0.042592 
-0.034537 0.247577 0.049248 
-0.06685099999999999 0.320927 0.058316 
-0.065774 0.338208 0.051073 
-0.079399 0.342784 0.046755 
-0.080249 0.327549 0.054092 
-0.030453 -0.175829 -0.099425 
-0.217564 0.483533 -0.100649 
-0.210182 0.473267 -0.107286 
-0.212545 0.467541 -0.101016 
-0.220644 0.479481 -0.094903 
-0.028099 -0.206867 -0.100479 
-0.028345 -0.224701 -0.113262 
-0.038157 -0.177141 -0.16759 
-0.02787 -0.175888 -0.145802 
-0.09070499999999999 -0.27788 -0.037367 
-0.09450799999999999 -0.248572 -0.028007 
-0.090797 -0.308233 -0.047292 
-0.088932 -0.336654 -0.056974 
-0.08559 -0.504114 -0.140062 
-0.094636 -0.528508 -0.137948 
-0.108623 -0.608504 -0.146745 
-0.110912 -0.639185 -0.150174 
-0.115344 -0.67416 -0.153557 
-0.118488 -0.71151 -0.157442 
-0.119347 -0.74512 -0.157402 
-0.265693 0.590787 -0.042194 
-0.251328 0.571103 -0.054053 
-0.264962 0.56441 -0.054064 
-0.278628 0.583002 -0.042746 
-0.233373 0.503992 -0.007913999999999999 
-0.224966 0.508954 -0.006283 
-0.238301 0.5270899999999999 0.007066 
-0.247737 0.52198 0.005503 
-0.262506 0.540206 0.017196 
-0.273489 0.538998 0.013771 
-0.258096 0.519394 0.001836 
-0.297443 0.546757 -0.015034 
-0.297541 0.5550850000000001 -0.024563 
-0.282679 0.532676 -0.03657 
-0.283794 0.527072 -0.023965 
-0.288718 0.574577 -0.038314 
-0.274813 0.556675 -0.049506 
-0.280865 0.545804 -0.043477 
-0.29565 0.5654 -0.031263 
-0.236544 0.561018 0.016562 
-0.245037 0.551252 0.018939 
-0.22973 0.534107 0.007089 
-0.221256 0.543607 0.004643 
-0.16845 0.540069 -0.081065 
-0.183355 0.547026 -0.070968 
-0.149448 0.431561 -0.043486 
-0.142619 0.449203 -0.033985 
-0.147395 0.457899 -0.038814 
-0.157517 0.442149 -0.048853 
-0.202941 0.559709 -0.034288 
-0.187428 0.547249 -0.045182 
-0.198385 0.554604 -0.05848 
-0.213399 0.566492 -0.046336 
-0.206148 0.526419 -0.007753 
-0.215087 0.516422 -0.006002 
-0.200563 0.49778 -0.019616 
-0.191702 0.508031 -0.019359 
-0.259035 0.500535 -0.021391 
-0.238862 0.482906 -0.030351 
-0.161098 0.498865 -0.038882 
-0.172853 0.509655 -0.032467 
-0.141092 0.345902 -0.023752 
-0.157217 0.334607 -0.062629 
-0.158983 0.35647 -0.06365899999999999 
-0.131743 0.277668 0.030638 
-0.13092 0.295393 0.032714 
-0.155207 0.280522 -0.036467 
-0.156905 0.296187 -0.041881 
-0.138463 0.2847 0.022777 
-0.135606 0.297289 0.026806 
-0.091319 0.200207 0.03024 
-0.022198 0.444137 -0.022511 
-0.185259 0.537145 -0.031706 
-0.186137 0.522145 -0.023012 
-0.230761 0.467424 -0.056884 
-0.215321 0.453091 -0.061969 
-0.209655 0.45118 -0.059641 
-0.227226 0.466605 -0.048816 
-0.13964 0.323006 -0.141594 
-0.123314 0.308616 -0.144361 
-0.131404 0.300162 -0.136336 
-0.147697 0.314861 -0.131386 
-0.21327 0.50017 -0.105143 
-0.211145 0.513751 -0.102806 
-0.199611 0.505915 -0.113346 
-0.204274 0.492104 -0.113991 
-0.192235 0.520402 -0.108944 
-0.206408 0.529384 -0.09722500000000001 
-0.196139 0.542729 -0.08616699999999999 
-0.181739 0.534954 -0.097356 
-0.19106 -0.088008 -0.155061 
-0.20342 -0.095598 -0.126298 
-0.152232 0.028236 -0.020836 
-0.134005 0.020312 -0.005638 
-0.120121 -0.074924 -0.018251 
-0.052852 -0.165824 -0.04679 
-0.040475 -0.172807 -0.067922 
-0.030637 -0.246537 -0.12681 
-0.205472 -0.10314 -0.09528499999999999 
-0.035324 -0.274271 -0.137193 
-0.041487 -0.30274 -0.147042 
-0.08627700000000001 -0.298149 -0.205986 
-0.113551 -0.299639 -0.211621 
-0.109583 -0.271505 -0.209407 
-0.080608 -0.268944 -0.202336 
-0.140503 -0.302574 -0.205632 
-0.139184 -0.274618 -0.205231 
-0.138971 -0.393688 -0.06947 
-0.14644 -0.604663 -0.248058 
-0.167936 -0.639763 -0.240376 
-0.169069 -0.602454 -0.239776 
-0.146843 -0.6398200000000001 -0.248475 
-0.184653 -0.602453 -0.222776 
-0.183057 -0.5692120000000001 -0.220302 
-0.180105 -0.634487 -0.14969 
-0.148203 -0.674192 -0.245197 
-0.167719 -0.676864 -0.23713 
-0.184233 -0.637916 -0.223481 
-0.181414 -0.674806 -0.222724 
-0.031575 -0.192487 -0.090236 
-0.186803 -0.177379 -0.049052 
-0.182938 -0.150014 -0.04331 
-0.128699 -0.142105 -0.01527 
-0.09671299999999999 -0.150692 -0.018174 
-0.109103 0.096007 0.012635 
-0.125935 0.097858 -0.000386 
-0.126472 0.144232 0.008154 
-0.137146 0.148482 -0.009747 
-0.136226 0.122365 -0.014743 
-0.12581 0.120169 0.003701 
-0.147305 0.158813 -0.046808 
-0.144882 0.164333 -0.067148 
-0.137477 0.13815 -0.068395 
-0.141726 0.131051 -0.051437 
-0.134873 0.114961 -0.072449 
-0.125636 0.122951 -0.086216 
-0.081747 0.170056 -0.126858 
-0.095966 0.165855 -0.120445 
-0.102854 0.189056 -0.127541 
-0.087371 0.193586 -0.133854 
-0.06274100000000001 -0.130026 -0.025297 
-0.0372 -0.174803 -0.078939 
-0.09583700000000001 -0.220431 -0.023527 
-0.129627 -0.192733 -0.01474 
-0.161934 -0.1877 -0.024734 
-0.187763 0.449583 -0.053145 
-0.168707 0.371845 -0.117612 
-0.170552 0.365297 -0.111861 
-0.220263 0.5367150000000001 -0.08355600000000001 
-0.210247 0.551015 -0.073378 
-0.178757 0.492253 -0.029534 
-0.148766 0.527603 -0.065038 
-0.14771 0.511455 -0.048199 
-0.139712 0.50729 -0.049486 
-0.14694 -0.085192 -0.027905 
-0.175404 -0.096926 -0.038879 
-0.152882 -0.108314 -0.023924 
-0.026859 -0.177029 -0.129893 
-0.07208100000000001 -0.159054 -0.028719 
-0.046911 -0.331354 -0.155994 
-0.051134 -0.358746 -0.164344 
-0.054084 -0.385131 -0.172708 
-0.057116 -0.410853 -0.183319 
-0.062417 -0.436288 -0.194507 
-0.070377 -0.459898 -0.203167 
-0.077561 -0.485386 -0.203297 
-0.085323 -0.514796 -0.206688 
-0.08176700000000001 -0.5758760000000001 -0.20461 
-0.089631 -0.574852 -0.220857 
-0.08952599999999999 -0.544775 -0.214884 
-0.08982800000000001 -0.605842 -0.224706 
-0.090827 -0.637441 -0.226621 
-0.09542399999999999 -0.671625 -0.2247 
-0.101907 -0.705439 -0.221273 
-0.103977 -0.739505 -0.215025 
-0.029105 -0.177869 -0.108656 
-0.027403 -0.177796 -0.118232 
-0.09113 0.456982 -0.052874 
-0.15245 0.382124 -0.056192 
-0.158795 0.401251 -0.057943 
-0.166437 0.47943 -0.036796 
-0.262681 0.536587 -0.059874 
-0.253697 0.5434909999999999 -0.06519999999999999 
-0.185576 0.477594 -0.034288 
-0.157772 0.424301 -0.052549 
-0.164896 0.431359 -0.054437 
-0.288415 0.741946 0.033108 
-0.299424 0.743814 0.024684 
-0.296934 0.761819 0.035016 
-0.28791 0.759171 0.043709 
-0.282 0.73846 0.044266 
-0.283403 0.755717 0.05373 
-0.310121 0.724785 0.086155 
-0.298966 0.725743 0.082048 
-0.301743 0.744945 0.087033 
-0.312446 0.744415 0.09044000000000001 
-0.283125 0.769258 0.073962 
-0.287465 0.766563 0.081276 
-0.285014 0.748793 0.075488 
-0.281485 0.751941 0.066146 
-0.335025 0.72738 0.08004600000000001 
-0.344697 0.731274 0.070011 
-0.343155 0.710345 0.067824 
-0.333177 0.707351 0.07724300000000001 
-0.289166 0.648537 0.057604 
-0.300248 0.6469200000000001 0.064622 
-0.292949 0.632286 0.058393 
-0.283279 0.635105 0.050161 
-0.291961 0.7065630000000001 0.010199 
-0.30568 0.706579 0.005255 
-0.302474 0.725239 0.01459 
-0.290101 0.724334 0.021498 
-0.27758 0.694893 0.048994 
-0.282552 0.691225 0.06041 
-0.279913 0.673841 0.048753 
-0.276593 0.677764 0.036565 
-0.294259 0.689453 0.000538 
-0.309026 0.687488 -0.002746 
-0.281641 0.730942 0.068691 
-0.289067 0.727822 0.076449 
-0.285713 0.709512 0.069314 
-0.279171 0.712638 0.060008 
-0.336419 0.768527 0.084289 
-0.342281 0.772532 0.075129 
-0.344147 0.752148 0.07249 
-0.336115 0.747974 0.082298 
-0.294724 0.764984 0.087003 
-0.303996 0.76387 0.09138 
-0.292344 0.7465810000000001 0.081925 
-0.319946 0.782378 0.039808 
-0.306979 0.781678 0.039781 
-0.309562 0.763046 0.030745 
-0.323203 0.76369 0.031199 
-0.30284 0.686056 0.075317 
-0.291541 0.688145 0.06919699999999999 
-0.295586 0.706771 0.076432 
-0.307061 0.705236 0.081216 
-0.282113 0.70372 0.021023 
-0.281997 0.721278 0.032965 
-0.327307 0.744294 0.023179 
-0.313095 0.744394 0.021558 
-0.317071 0.725063 0.01329 
-0.331398 0.723734 0.017394 
-0.346256 0.699808 0.026394 
-0.350249 0.695953 0.041151 
-0.348934 0.71748 0.042699 
-0.343109 0.721251 0.028235 
-0.296467 0.667983 0.06699099999999999 
-0.308728 0.666794 0.07174800000000001 
-0.329619 0.687709 0.07475 
-0.34075 0.690255 0.06621299999999999 
-0.33605 0.668868 0.064938 
-0.323222 0.666892 0.071662 
-0.277813 0.654774 0.002856 
-0.285479 0.657436 -0.008788000000000001 
-0.283773 0.670054 -0.00173 
-0.277073 0.666511 0.009379 
-0.297727 0.671249 -0.009332999999999999 
-0.300719 0.655386 -0.014601 
-0.313647 0.629605 -0.016327 
-0.322772 0.621337 -0.00835 
-0.32751 0.629843 -0.004223 
-0.316392 0.638812 -0.013651 
-0.349831 0.655751 0.025975 
-0.347884 0.651325 0.04049 
-0.349629 0.674817 0.040901 
-0.348805 0.67838 0.025795 
-0.332343 0.627202 0.054655 
-0.318591 0.62857 0.06295000000000001 
-0.328401 0.646313 0.063412 
-0.340181 0.648096 0.053732 
-0.299118 0.574671 0.032179 
-0.28957 0.577715 0.037685 
-0.296766 0.5899450000000001 0.044846 
-0.307888 0.589401 0.039532 
-0.276931 0.59707 0.043489 
-0.271367 0.5852349999999999 0.037678 
-0.26354 0.5938909999999999 0.034156 
-0.26933 0.604101 0.038293 
-0.268363 0.62903 -0.009037 
-0.280645 0.6251719999999999 -0.021942 
-0.28359 0.631686 -0.01903 
-0.272919 0.6329050000000001 -0.008364999999999999 
-0.348961 0.63564 0.0257 
-0.344591 0.62926 0.041792 
-0.281785 0.608494 0.048116 
-0.273941 0.614449 0.04197 
-0.278946 0.62444 0.045826 
-0.287045 0.620014 0.053141 
-0.268777 0.628908 0.020462 
-0.272112 0.634651 0.007529 
-0.275767 0.640826 0.011305 
-0.274664 0.635494 0.024417 
-0.275736 0.638248 -0.005742 
-0.285182 0.638489 -0.016564 
-0.286101 0.646861 -0.013436 
-0.277752 0.6453449999999999 -0.002261 
-0.346926 0.622546 0.024014 
-0.343361 0.626051 0.013091 
-0.3399 0.617162 0.011562 
-0.341523 0.613626 0.022599 
-0.322082 0.614007 0.05355 
-0.309838 0.614686 0.059263 
-0.277451 0.64413 0.029733 
-0.278907 0.640076 0.041408 
-0.27475 0.6302140000000001 0.036304 
-0.301277 0.644514 -0.01813 
-0.31009 0.575277 0.024047 
-0.317641 0.577769 0.015366 
-0.307931 0.562104 0.00664 
-0.298698 0.559378 0.017358 
-0.289074 0.561476 0.025555 
-0.279846 0.563163 0.029717 
-0.26068 0.570447 0.030176 
-0.252235 0.57901 0.027182 
-0.24568 0.591842 0.022337 
-0.242203 0.600263 0.012316 
-0.255489 0.615949 0.018303 
-0.258314 0.6063190000000001 0.028686 
-0.252784 0.614657 -0.013621 
-0.26598 0.6121220000000001 -0.02672 
-0.293582 0.619529 -0.026182 
-0.280645 0.606584 -0.033067 
-0.292511 0.604328 0.051946 
-0.286237 0.59282 0.045783 
-0.339081 0.7422530000000001 0.031402 
-0.346575 0.738842 0.044779 
-0.342743 0.759952 0.04839 
-0.334925 0.762947 0.037195 
-0.342615 0.776694 0.064183 
-0.346169 0.756047 0.060745 
-0.279418 0.734533 0.057203 
-0.27813 0.7169489999999999 0.046671 
-0.283471 0.772676 0.06317 
-0.276897 0.649246 0.017053 
-0.276902 0.659587 0.024713 
-0.328743 0.614434 4.5e-05 
-0.31748 0.612859 -0.013134 
-0.323295 0.605293 -0.005228 
-0.344076 0.638003 0.012289 
-0.342638 0.658197 0.01104 
-0.329448 0.661933 -0.00118 
-0.335491 0.636469 0.001936 
-0.334859 0.604496 0.019374 
-0.334306 0.608584 0.008928999999999999 
-0.328388 0.598846 0.003337 
-0.328329 0.59349 0.012891 
-0.259777 0.625213 0.005998 
-0.266904 0.629982 0.005342 
-0.302626 0.591645 -0.026191 
-0.309484 0.603935 -0.020025 
-0.303139 0.612564 -0.02411 
-0.295988 0.600909 -0.030032 
-0.309288 0.62091 -0.019951 
-0.307303 0.582473 -0.020696 
-0.316455 0.596154 -0.013057 
-0.244514 0.609839 0.001048 
-0.320018 0.5810110000000001 0.003974 
-0.320201 0.588104 -0.005221 
-0.310621 0.574462 -0.013235 
-0.310959 0.567058 -0.003802 
-0.348161 0.734843 0.058135 
-0.348393 0.7138 0.055872 
-0.305862 0.630143 0.063067 
-0.314283 0.645784 0.06757299999999999 
-0.298329 0.616918 0.057943 
-0.322233 0.724977 0.085964 
-0.324242 0.745214 0.089159 
-0.315616 0.686038 0.077914 
-0.32016 0.705658 0.082108 
-0.33568 0.702933 0.013583 
-0.324986 0.603092 0.039516 
-0.314 0.602337 0.046725 
-0.334238 0.614103 0.042956 
-0.269294 0.564686 0.030457 
-0.279809 0.582665 0.039459 
-0.345423 0.620211 0.033653 
-0.253071 0.5458 0.018901 
-0.317233 0.649045 -0.011742 
-0.299822 0.6357159999999999 -0.020823 
-0.297275 0.627739 -0.023331 
-0.294794 0.77934 0.044571 
-0.277313 0.69964 0.034969 
-0.278351 0.654982 0.036669 
-0.282184 0.651805 0.048534 
-0.332046 0.602657 0.02997 
-0.3254 0.591261 0.024042 
-0.317853 0.590489 0.032517 
-0.262504 0.622702 0.018683 
-0.263797 0.61419 0.030793 
-0.326023 0.765296 0.09127200000000001 
-0.269812 0.621949 0.03307 
-0.314182 0.6673210000000001 -0.008506 
-0.017377 0.391094 -0.152791 
-0.152068 0.261708 -0.029281 
-0.11882 0.226739 0.010234 
-0.132125 0.231976 -0.002656 
-0.151601 0.335454 -0.049978 
-0.149804 0.359491 -0.053877 
-0.167628 0.417986 -0.060637 
-0.173873 0.42564 -0.062525 
-0.154327 0.302333 -0.027801 
-0.06346300000000001 0.627165 -0.042683 
-0.060293 0.62244 -0.047044 
-0.066569 0.6412060000000001 -0.037965 
-0.030128 0.053677 0.030431 
-0.06328499999999999 0.610799 -0.038444 
-0.061032 0.604912 -0.043272 
-0.064637 0.60778 -0.040809 
-0.063361 0.611071 -0.036181 
-0.06400500000000001 0.612021 -0.035268 
-0.068147 0.63874 -0.027811 
-0.057772 0.615248 -0.050166 
-0.05633 0.606946 -0.052906 
-0.06654500000000001 0.621739 -0.028539 
-0.05095 0.059178 -0.155452 
-0.028762 0.058636 -0.154581 
-0.030926 0.039382 -0.169608 
-0.054482 0.040644 -0.169526 
-0.033435 0.019825 -0.18487 
-0.146 -0.008593999999999999 -0.170088 
-0.160742 -0.008807000000000001 -0.145096 
-0.161244 0.011133 -0.139687 
-0.142294 0.01042 -0.159336 
-0.176611 0.026402 -0.116899 
-0.164059 0.030757 -0.138822 
-0.177236 0.009204 -0.117769 
-0.183351 0.002483 -0.09397899999999999 
-0.18323 0.020491 -0.092307 
-0.18145 -0.006622 -0.07058 
-0.181368 0.011893 -0.06765 
-0.173504 -0.017338 -0.048824 
-0.160521 -0.028649 -0.030934 
-0.143753 -0.06331100000000001 -0.023807 
-0.117633 -0.050817 -0.013598 
-0.140691 -0.040197 -0.019578 
-0.074527 -0.064128 -0.003946 
-0.094698 -0.059175 -0.00791 
-0.039729 -0.068161 0.000942 
-0.056887 -0.066373 -0.000897 
-0.08884400000000001 0.441006 -0.032662 
-0.070988 0.477484 -0.136658 
-0.080988 0.473559 -0.139669 
-0.08803999999999999 0.484032 -0.124408 
-0.110691 0.416615 -0.162077 
-0.106577 0.434709 -0.159244 
-0.09211 0.424516 -0.16787 
-0.095593 0.406536 -0.168781 
-0.064428 0.464448 -0.143898 
-0.058385 0.467566 -0.141689 
-0.07206899999999999 0.459264 -0.147667 
-0.045438 0.437552 -0.152886 
-0.059935 0.44749 -0.151649 
-0.11816 0.482848 -0.131858 
-0.125872 0.464856 -0.142985 
-0.13591 0.469423 -0.138859 
-0.133183 0.484311 -0.128895 
-0.139566 0.41476 -0.144537 
-0.142701 0.401234 -0.141759 
-0.152118 0.410293 -0.135549 
-0.150425 0.422588 -0.140532 
-0.152147 0.511043 -0.11716 
-0.162271 0.495337 -0.129045 
-0.171488 0.504439 -0.124265 
-0.161003 0.519504 -0.111591 
-0.148538 0.437785 -0.144961 
-0.094789 0.312019 -0.155123 
-0.115933 0.320744 -0.15155 
-0.132419 0.332145 -0.148482 
